# 3D point list with one line of data per point:
#   POINT3D_ID, X, Y, Z, R, G, B, ERROR, TRACK[] as (IMAGE_ID, POINT2D_IDX)
# Number of points: 393, mean track length: 3.8301336573511544
29532 14.913840878743466 0.36167788143273738 -1.4175026083163627 113 124 124 0.85316310958926778 167 962 164 791 165 1552 190 584
29533 15.079295400815534 0.40417633115310353 -1.121785710685117 215 223 225 1.1571935858792086 167 842 164 796 165 1542
29534 14.811421809710618 0.34613794768048878 -0.9460875371917945 61 82 87 0.97593213565852466 167 1399 164 797 165 1676
29535 14.885325512205599 0.45312989221848993 -1.1088934933913415 40 44 49 1.3542355930040817 167 748 164 798 165 1930
29536 14.882824867745528 0.57845587796116105 -1.1996979965951355 73 77 83 0.77336296501185242 167 955 164 801 165 1938
29537 13.890367517568341 0.73886946034281642 -1.2081499128751028 142 154 147 0.74391922629654161 167 716 164 807 165 1535
29538 14.404863179808697 0.55861540501888818 0.45130553140461865 125 130 133 0.97188627213434209 167 942 164 817 165 2010
29539 14.44253334998265 0.5724147407937018 0.50720570251617403 51 53 57 0.86463087995762411 167 759 164 819 165 1494
29540 14.124810013905179 0.62320155480284278 0.5045901539275458 73 77 78 1.3253005063279184 167 761 164 822 165 1486
29541 14.054517828598826 0.6410370281843446 0.4576463515058255 244 247 248 1.1492131418921989 167 762 164 823 165 1485 190 522
29542 13.694197326348119 2.3029336478752969 -2.0529928363323684 91 93 92 0.79740981712389614 166 801 164 840 191 1208
29543 14.818950634553113 1.2631167358917212 0.26369546328046417 64 58 68 1.1386250868115886 167 932 164 842 165 965
29545 7.1843032067424666 2.3599020588751345 4.5497832347368998 150 168 152 1.2629616379657118 20 407 164 850 165 1373 67 863 100 419 201 898
29546 7.3392514353224785 2.3884261391751473 4.4759935702566187 144 171 154 0.53511417188742727 20 408 164 852 165 1780
29547 7.7874879362372607 2.5205242567686872 4.5699252586671752 161 164 153 0.29833252966859225 20 804 164 854
29548 0.69854070476974572 0.24697688167179407 0.75242420631241491 176 186 195 1.3738891341108823 167 838 165 1325
29549 1.2467142241846754 0.1239602386712453 0.90427333805488064 158 171 180 2.3000893782886735 64 757 167 1801 164 896
29550 1.3303971323693065 0.26190524684826677 0.59557754643063554 209 214 219 0.6124434802148927 64 222 68 218 164 903
29551 15.878920468480729 5.2786232235110333 0.92174081459641233 98 80 70 0.8264153664859053 167 1746 165 1056
29552 12.980701874481738 4.0481946779937985 0.56561400396376538 59 59 54 0.34518898961761413 167 1055 164 927
29553 13.267660773175523 4.1021846181300674 0.60052944109744 60 60 58 1.4590437184276681 167 1232 164 929 191 603
29554 13.214762581058702 2.9979483470544519 2.1518852305765548 164 163 159 0.88064575520131338 167 985 164 932 165 3004
29555 12.953231811824919 3.995473174188672 -0.6344276782563999 107 102 76 1.0502509746550162 166 602 164 937 191 1351 106 840 109 1034
29556 13.151255271770067 3.6553241126024885 0.079407508901458368 125 118 110 1.1666736136929901 167 651 164 938 165 1037 191 771 106 413
29557 13.289024782807058 3.3958549558000874 0.49715222951671162 81 81 87 0.7707673435521587 167 857 164 940 165 1640 106 524
29558 13.448578734046761 3.2423549752962697 0.80869627895027796 89 92 99 0.59203169383767917 167 854 164 942 165 1638 190 366
29559 13.079671462161622 3.5538548697472536 -0.011932357068526956 152 137 108 0.64096672273041211 167 1206 164 943 165 2235 191 764 106 567
29560 13.061154397415525 3.5673389390246184 -0.065889143915384238 154 138 107 1.40311551112666 167 851 164 945 106 1050
29561 13.222999822078835 2.8711920956548047 0.72792775738904614 68 62 72 0.63099351282659144 167 836 164 953 165 673
29562 13.01211659050249 3.0430284642981964 -0.21443074531145012 69 70 62 0.9651588075809775 167 627 164 955 165 1418
29563 12.646272289038848 2.1685324826661669 -0.34156187842506486 147 152 146 0.84549701285346823 167 612 164 966 165 1335 191 498
29564 12.663270124246095 2.0671771627228521 -0.4182335366912186 107 112 108 1.2932669136542447 167 403 164 972 165 763 191 260 190 323 106 231
29565 13.575084192389301 2.9619295700027828 -1.914631941722887 133 123 115 1.9297422603310459 166 729 167 1128 164 978
29566 13.226152645384822 1.1924108184058209 1.2266987953833492 82 86 87 1.1680908148555307 167 885 164 979 165 991 190 648 104 244
29567 14.630723211234764 2.0353044443790034 -0.03420787622994232 144 148 149 0.3732254045708347 164 982 165 990
29568 1.5137558882021225 0.12647384659287275 0.84394722258657195 190 192 189 0.57930353501628162 64 227 164 1052
29569 13.230066161528026 4.0582447598988329 0.5238662162485116 33 35 34 1.0609940014349861 167 1229 164 1075 106 860
32983 3.4473291157068937 -0.12881372528653826 -10.132645852419479 167 158 143 1.2258431208247815 197 206 195 289 194 339
29570 13.181646250924437 3.6775044163910784 0.19669501802791756 51 51 41 0.8004607055443973 167 862 164 1084 165 1647 191 773 190 560 106 527
29571 13.138035559572076 3.6499159021993295 0.15998357789169848 165 162 153 0.67983972119835756 167 859 164 1086 165 1646 191 518 106 526
29572 13.457369972145329 3.3123418825238811 0.89914781780817055 42 41 37 0.64173177542986071 167 1218 164 1087 165 2520
29573 13.318632065866737 3.4698862771908985 0.50306695631730325 40 39 45 0.57940902054229149 167 1214 164 1088 165 1827 106 623
29574 13.474502248880501 3.2896770982412558 0.83551572678329555 80 76 77 0.68516190319794745 167 1509 164 1091 165 2236
29575 14.894534102742019 3.9092262946947924 -0.356063560380111 48 48 48 0.65865887535866618 167 831 190 1370
29576 13.255778847675153 3.127201672056052 -0.46009546516101252 72 75 69 0.41613988485569547 166 1078 167 1168 164 1103
29577 12.658796404271495 2.0618669903488662 -0.66867954017946163 168 171 165 1.6076035479537285 167 1124 164 1133 165 2118 191 1241
29578 14.673575033283795 1.522442343635436 -0.062219097216277171 90 92 91 1.1981531583254998 167 928 164 1195 165 1236
29579 14.6833041793468 1.3655062530004163 -0.067979986797960371 161 169 168 0.66762480164664384 167 1077 164 1212 165 1460
29580 14.619105278585421 0.98977687403754588 0.51321294703148235 48 38 45 0.7010132799260288 167 1074 164 1214 165 1464
29581 14.037322174922767 0.73864514047799668 0.43009183145036162 110 87 95 0.94022812538115286 167 1622 164 1222 165 1476
29582 14.058076122962909 0.69923253986595035 0.49991037285385431 112 116 118 1.1685983501008901 167 1070 164 1223 165 2028
29583 14.313266802933462 0.60006276534947067 0.53974640393737394 132 131 137 0.72429778162331859 167 760 164 1229 165 2019
29584 14.44220249480288 0.59273111947408297 0.57887893043804839 112 112 114 1.2995761805918535 167 939 164 1230 165 2504 167 1351
29585 14.114246477654847 0.60110627845691389 0.41946464677042367 86 81 85 1.2761619213648361 167 1066 164 1233 165 2015
29586 14.364001415304211 0.60143220952885423 0.47414250192148932 116 120 121 1.2130300333459496 167 940 164 1234 165 2014
29587 13.897882784405587 0.95421736253387468 -1.3428812072196974 184 204 199 0.78041634681004812 167 1414 164 1263 165 1967
29588 14.324806584368414 0.1653984776291807 0.18487518128666247 220 225 220 1.5580051783369093 167 950 164 1266 165 1965 190 410 104 146
29589 13.866570713517818 0.70521019611652036 -1.1350173533535128 102 110 113 0.5149519428852064 167 1407 164 1268 165 1954
29590 14.775678165688291 -0.1860530101027725 0.41035362849404017 96 98 95 1.0694468711023191 167 1405 164 1273 165 3970
29591 14.536663156351949 -0.27068363194403061 0.4584123229597199 114 116 111 1.4449840589901546 167 2102 164 1276 190 923 165 1939
29592 14.619218867622353 -0.21645584778789873 0.21985215988345941 75 77 74 0.97015804075983603 167 1402 164 1280 165 1937
29593 14.415268146487088 0.48559973419890068 -1.5024477148826507 74 84 79 1.3125793540461854 167 1396 164 1286 165 1920
29594 15.142523856552666 0.33961630566700057 -1.1669393014977552 157 162 165 1.0199712524047768 167 1395 164 1287 165 1921
29595 14.611861143364852 0.43784025465044868 -1.4448221379647144 82 88 86 0.94684642178885547 167 743 164 1289 165 2897 190 498
29596 13.831938979829403 0.255688829369981 -1.459961786669324 131 141 140 0.74073215610180176 167 1394 164 1293 165 3558
29597 14.527481117896548 0.46163501339925694 -2.0048459300560761 62 77 72 1.5872104834449112 167 1352 164 1296 165 3424 191 1145 201 1629
29598 14.542889023331238 0.36393117717140494 -1.9212353279249599 59 70 72 1.2973764690451803 167 1390 164 1299 165 3930 191 1872
29599 13.953583383931436 -0.95037491564742849 -0.26037592689047878 213 223 227 1.0616456444599291 167 972 164 1308 165 1894
29600 14.157316824706227 -1.0534770501824222 -0.1343293970607512 156 165 172 1.1341927615266565 167 1530 164 1309 165 3531
29601 14.02840661260195 -0.98037362734994826 -0.35062105229948137 182 187 198 1.0804073915784731 167 1377 164 1311 165 1890
29602 0.59366125964532812 0.14664082003065382 0.8167154851124907 233 237 246 0.71891499932353242 164 1386 165 1710
29605 7.5169727617170308 2.3435274595020088 4.5990518550185238 153 173 164 0.60028223357100152 20 483 164 1416 165 1773
29606 7.2941268287386603 2.3823204365825994 4.5020739808067542 150 167 148 0.45745014754341762 20 485 164 1418 165 1783
29607 7.218539506796338 2.3641669537815018 4.5180281894913943 165 172 154 0.57517500388102594 20 487 164 1421 165 1788
29608 7.1843200294290712 2.3755351611883677 4.5794033583537317 67 99 86 0.73181568368265093 20 406 164 1423 165 1377 67 861
29609 13.949264751326686 2.1658605389957919 -3.3059386890994849 142 139 133 1.5407176573486434 167 1059 164 1434 191 728 166 957
29610 14.313198137711664 0.26885732280927621 0.64184362059895961 103 107 110 0.82718613742064473 167 1600 164 1446 165 4045
29611 12.614313969965893 1.0368291843777733 -1.0504488969737691 138 142 141 0.74122557864063376 167 1602 164 1451 165 2486 191 1171 190 926
29612 12.636207539971762 1.2484474485894106 -0.83459597091619131 206 210 209 0.85517187593017685 167 1940 164 1470 165 2539 191 1196
29613 12.654996660337432 1.4405119903601011 -0.51649481363789052 180 182 179 0.99963262217187054 167 929 164 1486 165 2855 191 734 106 188
29614 12.547881871207219 2.286290113858565 -0.5647442872116718 193 198 192 0.46845161621123366 166 1044 167 2292 164 1579 165 2762
29615 12.835011839728237 2.1112879572930439 -0.056123560661284842 80 82 77 1.8502391493389212 167 1473 164 1580 165 4810 167 1472
29616 14.360419583256906 3.1494028914768446 -0.40028430057094444 76 73 68 1.0983233483532475 167 1678 164 1599 165 2834
29617 13.641089563345767 2.5678294647586735 0.42016356189520493 79 83 84 0.62908701306431958 167 1167 164 1600 165 2160 21 693
29619 13.902822135665801 4.1477780149172432 -0.88236510033172388 28 30 29 1.7867371899351845 167 1444 164 1612 106 522
29620 13.406278492633593 3.2863949482839518 0.87002231852502365 116 113 112 0.67792842186965785 167 1457 164 1620 165 2533
29621 13.126278430554603 3.6073683820800784 0.25864170144045212 118 112 105 2.3821177891275194 167 2322 164 1624 106 848
29622 13.33831082574728 3.9402541047815767 0.76254090475612268 28 28 28 1.3777882365293384 165 1044 164 1076 167 1230
29623 5.9517550727004629 1.9074472236048519 0.41916492544558409 185 166 151 3.4347675980507466 167 1238 164 1659
29624 7.4424110531908925 0.87100541269875775 3.5971877889887991 89 94 90 1.8590675827712906 20 420 164 1675 165 3056 163 3251 201 3603 100 378
29626 1.4412821379041891 0.25559124041826631 1.4178998179361422 36 35 31 1.4026451246786493 24 702 167 1900 164 1786
29628 0.25488162314090557 0.0074726541841926781 1.3848358756047656 81 83 78 1.5817533982790095 167 1347 164 1835 68 830
29629 13.280346082498841 3.0946601163771188 0.44510930853199909 101 92 109 1.0192606339947075 167 1618 164 1858 165 3644 106 829
29630 13.362306818860244 3.5709219786959263 1.3613477026997094 55 53 41 1.3739624901118519 167 986 164 1859 165 3805
29631 9.8407217475902833 -4.4521105953667464 -1.6126852756077457 182 192 197 0.78135941056365998 167 1503 164 1874 165 3476
29990 9.6596763601556752 -1.8367743651179829 2.0987998157781935 121 123 120 0.71210987495737876 164 2555 165 3550 163 2626
29632 10.250254090766731 -4.4096296563277333 -1.6797365530781754 210 215 219 1.2620447754269835 167 1505 164 1875 165 1631
31015 6.4911532743225511 -4.5401296607491082 7.9641955620926783 24 47 78 0.95744821174976824 155 129 162 125 161 147 160 153 193 94
29633 14.86795455972541 -0.46635805505658107 -3.737198139573592 68 77 75 1.5660889223645122 166 1242 164 1881 191 1119
29634 14.551920679946727 0.48432905713644031 -1.9778054966433818 126 141 127 1.3036150522621035 167 1392 164 1903 165 3556 191 1632 201 1412
29636 15.126942817222554 0.28811833387806063 -1.1465776957959342 34 39 45 1.2354605977511341 167 961 164 1906 165 1545
29637 15.000489053069618 0.40284230104305085 -1.0674554732828807 62 69 77 0.86652250863274494 167 1569 164 1908 165 2905
31012 6.2227071786909161 -6.1489855962271758 8.3850814973859435 87 71 47 1.6754225720131344 155 82 161 139 160 147 188 70 193 72
29638 14.920861888123135 0.36676359362093203 -0.90682072837911953 31 47 54 0.91176599768434541 167 1570 164 1910 165 3962
29639 15.1223921885286 0.43888297155043482 -0.99667310051583125 56 60 66 0.45503877147429883 167 2099 165 3963
29998 7.843147549858049 0.44287335453352761 3.5798816391885517 169 181 179 1.6959457392414243 164 2244 165 3751 163 2888
29640 14.939111014570535 0.39666007725650004 -0.89955269820885864 135 138 143 1.0778949120618468 167 1571 164 1913 165 2917
29641 14.947688909864489 0.5067311793384317 -1.1015635039997906 133 131 138 0.92949902601865941 167 1404 164 1914 165 2920
31016 6.2386843863126114 -3.6845158258171393 6.922748472162934 89 80 66 1.3343822355488908 162 134 161 151 160 213 193 126
29642 13.755865108496923 0.77253632296732044 -1.2099515380393662 108 135 126 0.91139222631745576 167 1408 164 1923 165 1957
32041 -0.11823824061840157 1.0243441955377057 1.6740881392310949 11 11 11 0.69764125372556118 60 730 67 820
29643 14.042041092752388 0.15495501591363925 0.17592021415300446 119 123 122 1.766648924622523 164 1928 165 4002
32034 0.40024003324720442 0.092235037410790283 0.87037347955215583 104 117 123 0.2341238794714392 60 799 165 1743 67 583
29644 12.519412600574588 1.8946053188088026 -0.76329851733022402 151 153 150 0.64091584873486596 167 1101 164 1951 191 1224
31011 5.5325781028740071 -1.4972104041198693 4.0923722657148662 193 196 201 1.3965933316008201 162 138 161 131 160 119
29645 1.1773964398367758 -0.00089277000456969139 1.0459031809069819 146 155 160 0.14421743910559268 68 1917 164 1966
29997 13.985977745435289 3.5915181560636968 0.72069457158798478 86 84 85 0.18533736734359788 164 2230 165 3727
29647 1.1413792392631379 0.3489439823316613 0.4726156273846458 198 209 215 1.0264379034091591 64 1972 164 2002 67 2232
30006 13.32163703490242 3.9788442582169132 0.68022157984449871 42 51 56 1.6463220365846194 164 1633 165 3856 191 1435
29648 13.735396190947853 3.0933870736398901 -1.8555735448094204 114 96 84 2.2074964118328131 166 1529 167 2656 164 2007
31031 6.1011140921974638 -3.1472033937845474 5.2575645571724463 170 180 186 1.14475052901968 162 196 161 181 160 178 163 107 193 124
29649 12.121046672260675 3.8004497044382992 -2.8029964442606707 29 29 30 0.094473271813933266 167 2653 164 2021
29651 0.8109991686781195 0.27090657487839259 0.70757667331181939 235 239 248 0.58748497293791924 64 841 164 2116 165 4780 67 1373
29653 12.850754525678576 2.8442066758371616 0.55006993853324671 98 93 113 2.1676120351948431 167 1958 164 2145 165 2812
31028 6.1062799554535356 -3.2707759903478109 4.9787092578843444 180 185 193 0.54556688362799355 162 190 161 176 160 182
29654 12.879821467580236 2.7122255204254584 0.27695793114441303 78 74 62 0.32084713315207791 167 2499 164 2159
32898 2.5396829496308029 2.660832201353768 1.2838498412435038 68 77 86 1.1447324178924396 42 1059 82 373
30005 14.393589413632316 -4.3237260980573797 0.39006952973892445 140 144 145 2.058060116136279 164 1324 165 3833 201 635
30014 8.4364744192400618 -1.0859438157712584 2.4963626169918718 110 116 113 0.97660877153923897 164 1231 165 4089 201 1132
29656 1.4521132544215516 0.47407099865852442 1.5375881646594349 102 84 70 0.39182294458804223 167 1923 164 2186
29658 2.5974964445193662 1.3345792180278617 1.6212476781470349 0 0 0 0.75444905350572733 24 2256 167 255
32057 -0.1483819309913946 0.86138779139237598 1.8876132622201134 100 81 54 1.9338692000236311 60 1658 64 1047 67 2557
29659 13.112800712921246 3.5954813292929906 -0.217711886396418 109 103 79 1.2203740241186829 167 1972 164 2208 165 3683 191 1341
31027 6.1082524683615862 -3.3465019519423418 5.1298393429578724 171 180 187 1.5296706994788103 162 189 161 175 160 169 163 179 193 206
29661 13.261222445853836 3.141869797227435 0.68839651882166808 37 46 55 2.2009524350902834 167 2515 164 2212 165 2782
29662 13.065237511435825 3.5936094549505948 -0.10435119836935763 153 138 107 1.1776903379149528 167 2330 164 2218 106 1028
30013 8.5966218240827335 -1.2787954011304548 2.4158930812320292 111 118 111 1.7322023026949938 164 2485 165 4026 163 3793
29663 14.934529352621309 -0.39765588548688324 -3.8574601403561419 114 115 119 0.38006073840216209 167 1518 164 2222 191 699
29664 13.370186373325751 3.3257708494701412 0.77254612116555232 85 86 81 0.81019111034580982 167 2651 164 2224 165 3713
29665 13.277315472658914 3.5615037250947403 0.34558378244216637 122 104 102 0.67836167847812046 167 2314 164 2226 165 2481 191 913 106 845
29666 13.318974145004752 3.4734741926389723 0.53972626860278994 107 103 104 0.67636502291042166 167 2317 164 2228 165 3725 106 940
29667 13.198819902648697 3.4790512884368532 0.51479421167507722 76 74 74 0.75315291677920015 167 2325 164 2232 165 3731
29668 13.966053860560242 4.2093263724261698 0.55198714563942308 64 70 66 0.92020402457927786 167 2076 164 2242 165 3013
29670 11.643547207195043 2.9877744903445045 -2.2315471790259873 29 28 26 0.14001901026124414 167 2287 164 2302
29671 12.689432486457934 2.0544551851960628 -0.44773982018468733 170 175 170 0.98603768580452755 167 2256 164 2316 165 2751 191 1267
29672 12.60570274112057 2.0739495434883537 -0.63343603693517214 209 214 207 1.8849972145546099 166 1526 164 2335 165 2120 191 1690
29673 13.696367489393415 1.2470707261729721 1.2175963275487651 145 149 150 0.086729468448710517 167 1429 164 2341
29675 13.29234161918161 2.6290289712546411 0.48903707154323978 0 0 0 0.96535727803486771 24 1491 167 2405 164 2356
29676 14.276013060958421 2.7394604725500749 -1.476056443875186 140 137 137 1.2322573992449568 167 2215 164 2367 191 1707
29677 12.59476388574036 2.0073193434608569 -0.71904319309814091 159 161 158 0.97504428159912548 167 1684 164 2376 165 2731 191 1235 106 227
29678 13.662702830416031 2.615646695792154 -1.6298083458242627 72 74 71 1.489999598052103 167 2046 164 2389 106 1139
29679 16.79558815262239 1.6077752838952555 0.37506614274680372 53 57 58 0.085233939776402409 167 2182 164 2419
29680 15.705073282978196 1.3529543481137611 0.3432839103137405 119 88 90 1.5140898102405429 167 2160 190 629
29681 12.634823102425445 1.4510576256766534 -0.83845917329339026 156 162 158 0.71942667796198068 167 2145 164 2451 165 4151 191 1416
29682 12.636722749043001 1.2319041052936326 -0.95118255243490946 172 176 175 0.56104172508036476 167 2137 164 2460 165 2521 191 1630
29683 14.56792849687362 0.037872080189687254 0.47308343753604021 138 140 137 0.8031069953843194 167 2106 164 2511 165 4001
29684 15.235100619066028 0.55000458295378274 -1.0917826530451862 83 47 57 0.94239584018880995 167 2101 164 2536 165 3965
29685 14.632914405440967 0.53486168712684035 -1.4471371082048923 61 67 67 1.1668479924690258 167 1567 164 2539 165 3955
29686 14.38850560028823 0.78040071088888563 -2.2071026417844255 91 99 101 1.1262775860043706 167 2096 164 2543 191 1645
29687 15.767144806925325 -2.8108165386658914 -2.8655061072155537 42 52 62 0.33332186303728406 164 2571 165 3482
29688 9.704659795370798 -4.3488199089342761 -1.5840577451006106 253 255 254 1.4444317832656983 167 1504 165 3826
29689 13.235421578960491 2.6452363080954098 0.53253957378662764 77 78 73 0.41456751322375807 164 2588 165 3570 24 1493
29690 12.6744036145381 1.0271969935925707 -1.0746311077713158 191 195 194 0.49164518996318574 167 2123 164 2589 165 4052
32950 1.7844912451755826 2.8185976104528372 0.5571777639495239 87 104 114 3.1523105428070388 83 847 82 794
29691 13.156684877600298 2.5104079615054684 0.33196330610448571 92 92 85 1.3287789468046514 167 1496 165 5002 164 2636
29692 7.9154215915111097 1.7425669493038363 -0.87503405701702164 24 25 27 0.41706858154428383 167 2319 164 2662
29693 1.3106755868540536 0.16904172492284278 0.76690139918289912 231 235 244 1.1367455546331202 64 385 167 2473 164 2694
29694 13.701701474472083 -0.98466373811355623 -0.86754656798778162 120 129 136 1.5500221369537412 164 124 165 159 190 108
29695 11.543914639274174 3.2893209937690941 -0.67901292568893479 74 74 74 1.0315502211049234 167 107 164 145
29696 13.406257292706837 2.4465691005619843 0.40768016895831405 42 46 47 1.3443554099583128 167 219 164 243 165 246 21 75
29697 0.28517100708891086 0.01402705183953048 1.3685649027001872 39 40 42 0.92193734797231897 24 1600 164 510
29698 1.4606884132944331 0.44054267787162027 1.488745510599959 93 84 65 0.87268847790434256 24 674 164 654
29699 13.428058923844347 2.2777252591679744 -1.709719409827205 79 81 78 1.5281013307183051 109 598 164 740 191 594 106 301
29700 13.330661832275517 2.8520972399287614 0.19071931931536412 67 63 54 1.4284421443929731 164 1102 165 1415 24 519 21 267 106 575
29701 1.3622238693911026 0.22708083623234537 1.4157747698465866 85 85 83 1.3588656261545502 167 1909 164 1394
29703 7.242477398985951 2.5030971385341814 4.5147742040333201 86 118 107 0.98076891544736544 20 491 165 3398
29704 3.1450160886559555 -2.6987332719660544 0.8219711534248364 134 137 135 0.16758926547413938 164 2 165 14
29705 14.642859718196647 -1.2885525455525755 0.46204639293694322 185 190 194 0.67781681732419674 164 24 165 17 190 17
29706 14.612754882104118 -0.30106119776163054 0.3918644882413827 89 91 86 0.61332961202014757 164 23 165 19 190 10
29707 14.952801051365785 0.088636924602952291 1.3522227377395506 160 167 165 0.062434133618729064 164 22 165 28
29708 9.3163916023955089 -2.2190198862174673 2.0830683497138902 29 38 47 1.3026433091729943 164 27 165 31 163 30
29709 12.543677606979632 -4.1242305187929258 0.72707149932965798 161 172 168 1.2459412903480347 164 37 165 49 190 38
29710 14.981645897354101 -1.8379871878791558 0.94401415113854559 121 132 134 1.6680887209519426 164 38 165 51 190 25
29711 10.785735097520128 -1.6940209829813073 1.8717512869933157 81 86 88 1.2598938755710567 164 39 165 52 163 49
29712 12.880015941227965 2.1882405488046008 0.38681825807021092 48 53 54 0.58516957169704331 164 50 165 71
29713 7.668527910308029 -0.46005603000981793 4.1637437361389784 124 105 65 1.1094451073240801 21 62 165 84 163 128 162 145
29714 10.873972483565739 0.089557628415722804 2.1936206865544148 63 68 72 1.4040568836205278 164 59 165 88 163 62
29715 15.065020011951312 -0.039578684024198917 1.0782443448227303 161 168 166 0.023105738145698881 165 93 190 54
29718 8.5667094039257758 2.5301695432660924 4.1369364808138593 133 134 128 0.67485367090178394 164 98 165 141 201 82
29721 14.266585960716501 -1.9108165965456683 0.48191907733691414 191 201 202 0.74852688212399432 164 67 165 157 190 69
29722 11.598454563265289 -2.4716765581757212 1.8072908093357289 114 119 113 1.8898011933008625 164 202 165 158 163 73
29723 8.6578253829739946 -1.6384021760395653 2.3088911792601676 162 166 162 1.2213930008344163 164 112 165 163 163 166
29725 9.7968565163113865 -2.630415704076623 1.8899775439846229 138 138 136 1.7834408550398135 164 121 165 171 163 243
29726 14.749742233344652 -2.1576722125234093 0.82072246544476302 164 174 176 2.048183263313843 164 122 165 173 163 175
29727 14.718323203131762 -0.51081889583833362 1.879730222486492 154 165 167 1.2853910082953688 164 161 165 185 163 109
29728 14.372842931503097 -0.29113633484369439 2.1166816959900547 177 183 179 0.56338196587276868 164 160 165 186 163 197
29729 14.764894027533845 0.63646062842810935 0.68986972859707052 150 156 152 2.1678629633120958 164 115 165 187 190 66 167 84 104 14
31436 6.0334317939070603 -2.9082131168385117 4.5669459123239777 176 189 200 0.50991639726654325 162 261 160 307 189 137
29730 7.5847881830761104 1.0944638829166449 5.2712911897153267 113 112 108 1.0493662276228914 60 52 165 204 163 217
29731 7.4436929623419177 0.83778151749834007 3.5560989966742302 151 164 157 1.6259659504059503 164 375 165 215 201 237
29732 13.302211949634678 2.7243096930785899 0.35795792907979912 106 106 104 1.3542184542285152 164 154 190 60
32458 0.34193370356349079 3.1384874719390976 0.60178470069441836 156 159 148 0.91207853904215597 91 21 93 22
29736 12.82175676580489 -4.9762738577859453 1.3949213468614277 117 123 121 1.726713908787034 164 85 163 153 165 150
31435 4.5553714221724881 -4.6140861781338378 11.065100872871454 88 90 89 0.8332816255933041 155 134 160 287
29737 13.443633159142362 1.0816244963447321 2.3997633062387784 100 109 114 0.87588888018411715 164 212 165 251 163 271 190 94
29738 10.382339041406889 0.40733001762313614 2.4229214685714777 93 98 101 0.6485872183528808 164 164 165 252 163 204
29739 14.798635081214275 0.6756375055538274 1.4498305085072389 159 160 152 0.79268475119123893 164 173 165 257 190 241
29742 14.853502755457956 -0.38714258631406107 1.707144540040763 146 61 77 0.9071865633742966 164 183 165 269 163 294 190 141
29743 8.586583458802787 -1.4180182956112468 2.4164795266220871 143 143 143 0.89478382855218874 164 185 165 272 163 302 201 210
29745 15.377548515095274 -0.4401990644116881 0.75905664002925288 121 125 124 2.2679671671708799 164 133 165 276 190 72
31452 6.1971528023538776 -7.8609470882478538 8.8544614084876265 45 35 23 0.23620270997505696 161 507 160 455
29746 9.7355646454538256 -1.9420379543833615 2.1085074413709344 60 63 70 0.92808637471883759 164 178 165 280 163 315
32477 0.8430242385240041 2.6857297811051999 0.31049550997367359 39 45 43 3.0709482349022874 91 260 93 196 90 308
29747 6.7848065731211795 -0.50051374043276275 4.2658621679234052 123 96 53 0.31895283354735338 21 92 165 292 163 237 162 212
29748 5.8469585559844175 1.0669969340269181 5.0023069167602472 124 119 117 0.88418369613441639 60 108 165 305 163 338
29751 7.4208707226257173 0.92054489280000762 3.7994421454958607 138 143 137 0.98772544162632603 164 221 165 350 201 293 100 108
32474 0.3946873926875501 2.9025451838133614 0.46504582279110002 156 157 150 0.11114153344717879 90 224 93 156
29752 7.9263689629021492 1.2586783017943934 5.2953986758267613 134 136 115 0.91729116209942685 60 86 165 365 163 436
31451 6.031457888507278 -5.0811522125931301 3.8385664453863413 174 190 204 1.4752588286489874 161 389 162 415 160 446 184 143
29753 14.555900115711699 -0.4613721328746081 2.0731645672949885 47 68 131 0.56934003000966038 164 296 165 367 163 358 201 409
29754 14.719132748129386 -0.25623136785969658 1.7430891431892539 153 162 161 1.0458822638811351 164 299 165 368 163 359 190 246
29755 8.0489954805172541 1.6129547059912386 5.398179124960155 45 45 25 0.96053592317837178 60 115 165 373 67 140
29756 8.0321101964781541 2.5486171377732521 4.1446812760857519 121 100 79 0.82716742724503156 164 277 165 378
29760 9.8976073362887291 -2.3353233842078076 1.9835508570762206 117 126 131 1.6495786033449706 164 200 165 411 163 557
29761 14.522766861520729 -0.54839400029623597 0.52672819353437328 59 60 65 0.53772528559766242 164 285 165 423 190 105
29762 8.628944119306853 -2.11149488418839 1.7753157992930646 91 100 107 1.2442266098329355 164 125 163 806
29763 9.9133352997354081 -2.0892183101886848 2.1169863757618042 87 91 100 1.0464491854875242 164 280 165 488 163 563
29764 8.5747581580232985 -1.0748804201129132 2.7023362818937353 90 61 63 0.51908089533470259 164 326 165 513 163 615 201 401
29765 14.752594684369804 0.85154078412811085 1.1636018934069328 137 129 118 1.6364080456261731 164 330 165 519 190 190
29766 7.6395696979756886 2.6053528531490877 4.3018294619694863 127 111 85 0.17717864250557755 164 513 165 527
29767 7.950489465328741 1.3867748525681924 5.2770843181316014 88 42 29 1.0770379704873914 60 113 165 540 163 439
29769 10.354589784744254 1.5509395308928942 3.0569891701910805 94 93 91 1.7342686251756501 164 345 165 575 163 341
29770 12.770614563820416 1.076352413126703 2.380578373993341 159 165 163 1.766250322391631 164 563 165 595 163 267
29771 8.2155881095155472 1.5789880030436672 5.3152865931773556 43 35 24 0.90561540857454192 60 196 165 609 67 242
29774 8.1556582297715501 -0.56673177333589331 4.1779352965388235 61 51 33 0.51718890177216548 21 334 165 682 163 867 162 995
29775 8.5540407403255507 -0.27753761092730722 2.8656079406478896 144 153 151 1.8174762218688343 164 569 165 698 163 687 201 554 100 123
29776 10.15223263476833 0.057141413367660522 2.3250834025752538 165 169 178 0.41098136926961154 164 592 165 700 163 694
29777 13.439968679156113 0.72441966292062832 2.1125755438718681 80 89 93 1.1282596197382539 164 578 165 701 163 901 190 259
29778 10.332536438406654 0.062760857656286459 2.2735368015173467 87 90 95 0.6186062772176516 164 420 165 703 163 899
29779 7.7421678760045287 1.2440645979424976 5.3070231947998083 85 71 57 1.6286763083106648 60 181 165 717 163 999
29780 15.148937197156453 0.4104687540821591 1.5893932289122339 104 111 104 1.2030174876687543 164 442 165 726 190 435
29781 14.444409525494249 0.10778011040303077 1.9609182765606987 148 150 144 1.1037884290166429 164 443 165 727 163 879 190 281
29782 8.0756242877142324 1.3324648515330977 5.2984825112086327 82 50 36 0.61329284605517365 60 189 165 736 163 998 67 239
29783 14.493272369455989 -0.13087133109677831 1.8696918197428298 120 124 99 0.55040063569576914 164 450 165 737 163 869
29784 8.7200799651027836 -1.7270302056777547 2.3411806839077887 152 151 139 0.77450478605321826 164 470 165 738 163 1253
29785 14.882189211478691 0.16020596706401871 0.88600746236189809 67 72 75 1.1507961545166514 164 320 165 754 190 416
29786 14.877921924175556 -0.37620686075833276 1.5901456013789175 159 165 165 1.3534923019423701 164 319 165 761 163 595 201 787
29787 15.027858179891801 -0.45799985785585018 1.7910639421905075 161 163 165 1.3318066450196506 164 458 165 762 190 297
29788 14.31233866586973 -1.402736362968686 -0.93741097609999147 196 205 210 0.72954607017482331 164 309 165 815 190 245
29789 15.292248186582645 -3.3297689167403615 -3.0307140150998384 91 100 115 0.59984582903523465 165 829 190 217
29790 14.775511773107835 -3.8097623125123135 -2.8659660904516482 109 121 135 1.7072188171910441 167 302 165 831 190 204
29791 6.9109451967227313 0.97703805335552796 5.2199627731230516 22 37 14 0.88241671015993417 60 197 165 839 163 1128
29792 8.1871806578528208 1.5748002823562157 5.2351942480959792 80 64 48 0.91070343216768002 60 195 165 840 201 467 67 241
29793 8.5291350761851348 2.5190275951193666 4.2332740588597932 130 129 125 0.70577758357983456 164 525 165 847 201 674
29794 10.178618345657538 -2.4622075866028674 1.7474283476804753 108 112 113 1.6769081836327462 164 1004 165 879 163 554
29795 9.9773582438190704 -2.1790648426643968 2.0948709417818892 78 85 93 0.88030704226698087 164 777 165 884 163 1237
29796 14.039469725678282 -1.0240574000005516 -0.035782808546630386 173 182 191 0.36526622301737516 164 697 165 885 190 395
29797 10.118969370468484 -1.819969757169122 2.2001080310437624 105 109 108 0.017142620505397381 164 709 163 1508
29798 8.9138755938149306 -1.8727251333077282 2.27656452053203 124 126 121 0.91475612930174999 164 710 165 904 163 1247
29799 14.486893959771292 -0.90658056083293692 1.0131589537299093 132 137 136 2.1194001766744806 165 908 163 784 163 3482 190 170
29800 14.68149383132925 -0.73217055237789463 0.8004059257727244 75 76 78 0.94763024910182858 164 715 165 912 190 292
29801 8.4928359567348952 -1.5927331319438631 2.153996682933057 173 175 172 1.7409175284271046 164 469 165 915 163 1258
29802 8.6485007247188559 -1.6242515655055541 2.7131732139360851 91 56 53 0.88043617533962082 164 466 165 922 163 1466 162 1420 201 740
29803 8.6789482268592266 -1.4533283142950464 2.7119665466469685 147 149 146 0.54687002850676569 164 478 165 931 163 1275
29804 8.6469850788701095 -1.3908258654156513 2.7481174020050991 141 148 141 0.72391027121625817 164 723 165 936 163 1278 201 746
29805 8.7606035463360712 -1.2065990857830773 2.7255003441635024 131 131 131 0.59217016166698244 164 727 165 943 163 1290
29806 14.759100826478649 -0.20404062765686404 2.0226931772484469 136 145 144 1.4378271125168489 164 451 165 948 163 774 201 1730
29807 14.541300268166752 -0.0029093912417894104 2.1347265707278624 173 177 180 1.7460074473302916 164 446 165 953 163 876 201 546
29808 14.414208637940131 0.074603069037740277 2.1037760135270203 94 84 83 1.0293615124977271 164 441 165 958 163 881 201 1760 190 243
29809 14.63996541778803 0.075928457461683918 2.2023153796989043 184 192 193 0.59593712588333458 164 664 165 959 163 1312
29810 8.7412406866592782 -0.82506311632070428 2.7466108107259317 147 153 151 1.4104485125938442 164 874 165 966 163 1316 201 764
29811 10.344097686526219 -0.024309841420443422 2.2482514634712114 51 56 62 1.2693190727517754 164 985 165 983 163 1602
29812 13.255566803789401 0.90243120687943335 1.6423416740542225 101 109 108 2.0045532317387269 165 989 190 353
29813 12.954671052168955 0.94059669533358081 2.2768079088873954 166 170 169 1.507254794154397 164 1115 165 997 163 684
29814 8.5253170668448082 -0.19493014770841929 2.8051686851950475 148 155 161 1.5083159589468389 164 601 165 998 201 1714 100 125
29815 10.237274104283689 0.33755871649961455 2.4865523462613051 157 163 163 1.3031498756171473 164 568 165 999 163 910
29816 13.336619966769877 1.1200712904414285 2.2819112960604699 162 166 166 0.80220973451260513 164 567 165 1003 163 913 201 818
29817 8.1024750284896427 -0.48325233361449127 4.0544609607699442 121 113 97 0.75104914195155748 21 347 165 1018 163 1037 162 1001 201 1106
29818 7.9032239624117739 -0.57230478092191239 4.2891786168563071 33 30 20 0.87702319925090844 21 338 165 1020 162 830
29819 13.384082458758231 2.7123270594350646 0.58302258882109725 94 98 99 1.1294186746729351 21 270 164 1604 165 1025 24 739
29820 7.9930784991236203 0.60905973457825402 3.6532426739823816 110 121 115 1.2649430943208093 164 547 165 1041 163 952 201 236
29821 7.400366979226555 0.8764457521132486 3.7666954424934378 82 87 81 2.5726379661552476 164 906 165 1059 201 1040 100 196 100 396
29822 1.3175204073804074 0.27784162152265623 0.56400677348827877 200 209 214 0.77665357622074449 60 186 165 1071 67 173
29823 7.2989701333738379 1.125533321350753 3.7829372521307048 147 156 153 1.5402998451523795 164 893 165 1077 201 982 100 199 20 178
29824 6.8893026538610398 0.74853510776571874 5.0552188000120806 66 70 56 1.7644166611880079 165 1086 163 993 201 242 102 120
29825 0.80228688504878076 0.34346003689414029 0.57439673809730607 197 205 218 1.2372898003716584 60 269 165 1101 163 1408 67 552
33077 0.15833643761062738 1.2867797453123029 0.83609066043263081 98 97 95 0.35836625963084578 138 101 139 70
29826 7.9015763925553806 1.5821087210976115 5.425452849728118 114 115 97 0.95910777771764566 60 205 165 1108 67 247
29827 8.5485265601320943 2.4950878245004389 4.3218209105098007 125 126 122 1.2603782751336978 164 650 165 1110 201 888 100 174
29828 6.8410734437985976 1.6188511538244161 5.1907519695957856 83 70 50 0.62223487487153017 60 128 165 1124 67 159
29829 7.3275461761783536 2.2874934004190179 4.7192993190241053 77 107 99 1.1374980682022509 20 262 165 1130 67 257 100 418
29830 7.0591557660556044 2.607036709836049 4.3152127195588603 150 149 139 1.0936849873246752 164 1016 165 1135
29831 14.756435183029531 -1.9930563573128846 0.80110047830146136 92 102 110 0.3501723701115404 165 1144 163 1229 201 1555
29832 6.8908333998849853 1.0013482539635448 5.1026622852659287 36 44 18 1.4563529124929866 60 559 165 1170 163 1127 201 1359
29833 1.3284082446173615 0.26344716061716461 0.59573930991285329 203 217 220 0.70638171648867731 60 331 165 1223 163 2145 67 236
29834 13.530815295404839 1.0888839918056725 2.3298191081713062 95 103 106 0.49902443912975203 164 673 165 1239 190 1336
29836 8.5630486900067524 -0.10186047807550555 2.6125002185736768 157 165 168 0.72022443133090386 164 960 165 1266 163 909
29837 13.168931893814577 3.6092226600369628 1.3766362007892641 99 103 102 1.4299257494414117 167 990 165 1267
29838 8.1099732694999886 1.2323592904661578 5.2391280895027101 96 96 79 0.96069480820037445 60 546 165 1275 163 1118 67 466
29839 0.94892108648240658 0.34129932530455598 0.52341893588325794 198 207 212 0.19979223985647152 60 285 165 1279 163 2228
29840 0.95307947757985134 0.3591819974212781 0.49248503310647995 198 207 214 0.76449467536337501 60 297 165 1280 163 2232 67 428
29841 7.0866428124786944 0.88369092198058752 5.1749846866953408 144 166 145 1.0732462513579577 60 317 165 1286 163 1119
29842 8.1591001883822152 1.4080162213670309 5.1491233977758446 39 25 14 1.1274125041409457 60 318 165 1294 163 1349 201 879 67 517
29843 8.1413686169202872 1.4736156188813703 5.3171097698273808 115 84 57 0.88614217078828461 60 315 165 1308 163 1131 67 453
29844 9.3232169424174227 2.7100053798095738 3.9197262453491248 133 121 109 1.9988512870512585 164 1381 165 1310
29845 7.6835097142287072 1.3221784989104528 5.3386116495638305 134 99 79 1.1277905200922027 60 304 165 1316 163 1132
29846 3.212477548160253 1.1014401383364409 1.4360439434066834 111 125 138 1.2187426886196147 60 2076 165 1320
29847 6.5828943374552615 1.1261484864851403 4.8743452402311584 149 141 129 0.8121338893373713 60 122 165 1323 163 1137 201 999
29849 8.5574391790142705 2.4828238020001216 4.2726716520021357 57 57 55 1.0596792117353628 164 647 165 1336 201 1031 100 205
29851 7.0348491548292635 2.6072180769524902 4.4198160470522323 155 156 142 0.45890617929145117 20 404 165 1390
29852 8.2901950388599648 -0.3589311632516598 4.076765401099772 97 84 59 1.5517407302603836 21 563 165 1413 162 1722
29853 7.0121627003745157 -0.56978589321689344 4.252610214378457 125 89 53 1.0871411274623304 21 359 165 1423 19 514 161 2045 162 2473
29854 13.5571401872664 1.2189616622168762 0.95061433404716322 34 41 47 1.3157386454122151 164 986 190 957
29855 8.6298923870499067 -0.84038115672195191 2.9009279303448423 137 136 131 1.1488427850736829 164 1001 165 1442 100 254
29856 14.726163662494939 0.60247535740019842 1.7192590728839627 140 136 135 0.35377688766516263 164 873 165 1446 163 1995
29857 8.5904268978897598 -0.90058474087875873 2.9281785017652622 141 140 136 1.12982824455785 164 741 165 1448 100 247 201 2211
29858 8.5951226990989991 -0.92065139783188388 2.8609276387402987 138 137 133 0.47646834240889219 164 739 165 1457 100 187
29859 14.39072006601396 0.13903189115997874 2.3010350985707273 178 186 185 1.6218259696981479 163 1975 201 1767
29860 14.368577504813571 -0.0027938125395961114 1.914082603792403 162 139 131 0.70395012452165018 164 831 165 1479 163 1433 201 1094
29861 14.36343142885276 -0.052109815821023406 1.8779839089264247 116 101 82 0.4690892306019836 164 825 165 1483 163 1394 201 1736
29862 8.5494215204278916 -1.1107005523207261 2.5995750772575836 97 99 96 0.55719587468568932 164 821 165 1489 201 1129
29863 8.5772514138287494 -1.167159360730176 2.6942555504616332 82 83 78 0.6882494973151132 164 820 165 1491 163 1635 201 1131
29864 14.582581925435338 -0.41704750640510702 2.0075392072247698 151 167 174 0.6838600814288559 164 724 165 1505 163 1288 201 1066
29865 14.665333105632589 -0.39689363243297449 1.8269060582172763 162 161 167 0.34368139064993719 164 1441 165 1512 201 1058
29866 9.9813330811417984 -0.93999009258575428 1.8246274901643054 130 136 132 0.74145774996796388 164 964 165 1519 163 1626
29867 8.5675171385055187 -1.5203673750964641 2.5011354314370875 147 155 157 1.5144886362856032 164 720 165 1534 201 1553
29868 10.058439013307735 -1.2059413936103729 1.6817807803215659 106 112 112 0.89342220610117529 164 799 165 1538 163 1264
29869 9.0530259196243925 -0.89937607242873974 0.6304653540658941 131 137 137 0.053748840245281371 167 492 165 1549
29870 14.442700359321655 0.59113613242587726 -1.8611912846738619 37 60 14 1.1205647617055308 164 793 165 1550 191 720
29871 9.7958785346312727 -1.8666064742436546 2.1023793504307444 153 155 151 1.9536156846588775 164 702 165 1568 163 717
29872 10.028515734674574 -1.8723295414688235 2.0780720562564663 83 85 84 1.9398891239707636 164 1006 165 1569 163 1516
29873 9.3530827049429153 -1.9604678095909658 2.1350096701364989 113 124 130 1.6852046370840839 164 783 165 1575 163 1727
29874 9.9048480278375326 -2.0010213455289692 2.0578326774817679 97 101 103 1.1828669521805451 164 781 165 1579 163 2612
29875 15.276562153956258 -1.9119859020774257 1.2986914554397107 113 123 122 1.5955958164273607 164 696 165 1589 163 1545 201 1589
29876 10.029338113670661 -2.3400014202061414 1.790725747114879 102 111 109 1.4445402470818061 164 1886 165 1601 163 809 201 1178
29877 9.7611015520247193 -2.3781712029085504 1.8419161705034881 93 97 98 0.3885168166484404 164 769 163 810
29878 13.201261403689207 3.4849889874917963 0.096410541771919947 100 93 83 0.6502947203704782 167 647 165 1637 191 264 106 257
29879 10.235219329241488 1.4832654054683485 3.0880416961511594 142 143 140 1.6950739471458725 164 1631 165 1648 163 955
29880 13.401028284846962 2.4733720638688381 3.1111472835218139 150 150 148 1.1467959851106813 164 1630 165 1650
29881 14.549075325850628 0.44986131752726344 -1.934519674160619 85 100 90 1.1899276418263118 167 963 165 1682 191 719 201 1126 190 579
29882 6.8575072670427035 1.1512020954750246 5.0054563346827354 77 49 28 2.7357991133462605 60 203 165 1712 163 3072
29883 7.4115165189485017 2.4971982003445028 4.4261725736492563 158 167 160 1.0384158219007571 164 655 165 1785 201 1105
29884 7.2740886447095434 2.4001772059468967 4.4832977843600013 96 127 115 0.17150051483368856 20 486 164 1419 165 1787
29885 7.3756507993343217 2.5255190124049118 4.4828201138208792 95 132 126 1.2828793414549979 165 1792 201 2822
29886 8.6241997987521604 -0.84449973287998981 2.9586601499900822 91 85 85 1.0760865515568703 164 1169 165 1820 163 2361 201 2021
29887 13.972185797894994 -2.2142594362736578 0.54033195289221903 171 184 190 2.4145514632444631 164 689 163 548
32295 5.4910801347543963 1.7279790053430621 3.4253929861183687 221 240 247 1.0274352222232661 20 814 100 202
29889 15.138716823024708 -1.9805071582965024 0.9877010960715219 77 86 93 1.1235099195766061 164 1005 165 1879 201 1906
29890 13.95406366943852 -0.63718081388786152 -1.0609915985897422 42 56 65 0.66183414368226057 164 2558 190 572
29892 14.436684207289685 0.51821238582273088 -1.9791872731341242 59 78 72 1.6886926961033373 164 2546 165 1911 201 1867
29893 8.8513875061165947 -1.8652827033198547 2.6155445385849871 106 93 85 1.0689721735019979 164 794 165 1924 201 1534
32292 -0.20799850835754849 2.0100975998333666 2.43246296371546 227 215 203 1.1452951352499732 104 770 100 45
29894 8.6394942551089304 -1.5493263225333118 2.1726134900388709 99 104 105 1.5485462491505437 164 716 165 1932 163 1263 201 731
29897 8.6233935961711374 -1.221278946738843 2.845441301333961 127 132 126 1.1911727034848485 164 1227 165 2017 163 2419 201 2081
32296 0.25342228018644036 2.4773600041705133 0.9219457968573892 0 0 0 0.64379221252317564 20 728 22 811
29898 8.5405652813610722 -1.0811777413855113 2.5561409900608343 74 80 76 0.70318409661310521 164 824 165 2018 163 1669 201 1604
31273 6.2171996037037482 -2.8212846128444875 5.8260979846950347 177 190 191 1.4884506471343175 162 1387 161 1866 193 1177 163 1294
29899 8.5903812332578013 -1.1864997863039488 2.7823663415283417 125 126 120 0.58576367125121387 164 1226 165 2020 201 1606
31266 6.4319551689764252 -2.3063121042267243 3.6037608291992722 144 167 189 0.56010869191560575 162 1433 163 1893 161 1796 160 886
29900 14.456043997118345 -0.01422715987950045 1.7909415839266312 191 198 174 0.72025900167678913 164 733 165 2022 163 1389 201 1737
32291 -0.16983229172786773 1.232850687996156 1.2707622299069312 34 50 75 1.8059197846176556 99 41 100 18 102 51
29901 8.6545305360689024 -1.2178530266451419 2.8846048814373781 87 87 85 0.5108971375174518 164 827 165 2023 163 2426 201 2128
29905 8.5905640583963372 -0.96133841186745406 2.9149817088061933 138 137 133 0.97268831891792229 164 1199 165 2052 201 1860 100 242
29906 8.5757508909787532 -0.94618844528322732 2.882378331919663 142 141 137 1.0594482348054208 164 1198 165 2053 100 240
29907 8.5558154831610409 -0.88734729864721329 2.8160318934747357 136 137 133 1.2067915523291017 164 889 165 2055 201 1122 100 522
29908 8.5895349893542647 -0.94777090716327994 2.9427557247585119 97 96 92 0.62623454393655154 164 1194 165 2056 201 1632 100 243
32308 0.3249415073327499 0.33940855271659476 1.5773374195706564 139 126 109 1.5682748732118343 29 2138 191 575 192 251
29910 8.5676319818219913 -0.82732319501018914 2.7495170337051498 94 93 90 0.6446395182919562 164 1187 165 2063 163 1968 201 1633 100 246
32312 0.8448776247210289 0.10618408724188753 1.3761020029728517 38 41 46 1.5569658093442209 192 305 195 566
29914 8.5725993045085858 -0.84385307544302546 2.8594096004158498 106 102 99 0.35700818404706047 164 1179 165 2074 201 2173 100 250
31282 4.8601844297076759 -1.2871775858584167 4.2144050927990557 60 70 76 0.92261900156762433 162 676 161 1982 101 1022
29916 8.5743935661769051 -0.78252774375761525 2.8098570244019938 137 134 129 0.50457766444559127 164 1172 165 2078 201 1642
29917 8.5755800128546991 -0.76513892483984491 2.8663618982103274 155 152 146 0.46466559186887368 164 1161 165 2086 201 1644 100 257
29918 8.6026118021272939 -0.82149512100695699 3.0004773062965033 116 111 111 1.467945135860518 164 1158 165 2089 163 4025 100 258 201 2744
29920 8.5767211841728095 -0.74671366739094136 2.8856255971230311 110 104 96 0.63982186543995034 164 992 165 2093 201 1654 100 260
29921 8.5786791827406503 -0.71722186061191706 2.8943154745057202 149 140 131 0.70129729678413077 164 1151 165 2096 201 2296 100 399
29922 8.621961550123892 -0.78949352573460574 3.043093001830401 118 114 113 1.6230596062320959 164 990 165 2098 201 1258
29923 12.683318664241563 1.9602812475323905 -0.73242384342846634 139 145 141 1.5408486473355771 164 1141 167 1673 165 2112 191 843 106 479
29924 8.5798973226872377 -0.29589523635504866 2.8147596353193163 77 82 85 1.2885736376210752 164 965 165 2125 201 1704 100 221
29925 8.5233464267946513 -0.27027031793231909 2.7769822329797513 159 165 165 0.77442398421866065 164 963 165 2128 163 4051 201 1060 100 156
29928 7.0386400309100701 -0.67909934052907994 4.1458611417500695 94 63 0 0.7343536824613679 21 720 165 2184 163 2047 162 1713 161 2021 201 2410
29930 13.488499872320451 2.9722480066854149 0.65043185101156831 63 58 78 1.1743334702832346 164 2146 165 2209 21 1113
29931 13.342883494372586 3.5113612146906741 0.45445694209319709 96 91 98 1.2772520609366966 167 1481 165 2238 190 987 106 844
29932 13.195754870672259 3.5694116779860616 1.3493002295127945 94 96 95 0.98329524732753193 167 988 165 2254
29933 1.2619179264563514 0.31168258590133896 0.52362069104828324 195 204 213 0.62948669738586382 60 322 165 2363 163 2161 67 455
29934 1.1963589259591372 0.28848739071235124 0.59329562079613107 230 239 248 0.94862493240430956 60 653 165 2380 67 520
29935 0.97123077817308889 0.35126506736079349 0.50676240022111796 195 204 211 0.66836068559000172 60 332 165 2430 163 2225 67 432
29936 14.498756011785641 -0.2178201403786931 1.7578898875623072 167 176 175 1.5085687904307514 164 1240 165 2488 201 1712 190 601
29938 12.593857406622178 1.0953129953416474 -1.0257393750726282 218 224 224 1.6491630251814942 167 1064 165 2494 191 816 190 1243
29939 8.596694516429352 -1.1650404321521164 2.7516365824474511 126 125 122 1.1646237573728768 164 1461 165 2507 201 2085
29940 12.637530875247817 1.14114112309133 -0.85950150346471998 194 200 200 0.53776989940464659 167 1619 165 2508 191 1190
29941 8.5269611430711798 -1.0619537564043491 2.5695613690939303 127 132 128 1.3059085893385123 164 1465 165 2514 163 2431 201 2099
29942 8.4985677337575698 -1.0293660399090474 2.5528896302217792 85 89 88 0.89430587466190092 164 830 165 2526 163 3163 201 2172
