# 3D point list with one line of data per point:
#   POINT3D_ID, X, Y, Z, R, G, B, ERROR, TRACK[] as (IMAGE_ID, POINT2D_IDX)
# Number of points: 429, mean track length: 3.494204425711275
3230 1.2880532755313936 -0.73058964614342514 9.4936410360253074 114 118 127 1.2942053009500876 18 245 14 317 16 291 17 163
3231 -0.13460209404728743 -1.1754051490700568 10.066244133482185 115 123 125 0.53677778473946169 18 452 14 318 16 263
3889 -0.62045832337209805 0.02046710961856895 6.6576445886048798 137 141 144 0.076427821694318845 21 62 19 375
3897 1.2998424275531264 -0.42670597495909762 9.0417187152503882 55 69 76 1.7684020177511437 17 750 19 448 20 505
3240 0.23621721795253908 -0.27300480633979385 8.819014251729099 70 75 81 1.1640281387936811 18 290 14 346 16 316 17 238 21 162 19 136
3248 3.4741758137669034 -0.507271762976227 8.7046199533032134 95 96 101 1.2652333253490573 18 479 14 400 16 351
3251 1.4061610934339401 -1.2195381646989578 10.161204291462372 121 126 127 1.3145284129424595 18 501 14 425 16 283 17 208
3845 1.3013619021436253 0.45123418756860423 5.9076450476478035 19 22 27 1.0083841082522254 19 12 20 5
3252 2.2892238418714244 -0.2810543858200194 8.5100455494005764 97 100 112 0.47887573384915066 18 459 14 435 16 420
3254 2.0768987857250099 -0.27701447144369212 8.6380086084867624 87 97 106 1.0816195106395627 18 509 14 441 16 414 17 212
3255 1.7115310789066116 -0.44022109968071299 8.9967908819746487 86 93 103 1.3882161279703173 18 512 14 442 16 570 21 220 17 534 19 360 20 482
3849 -0.23311684062941102 -0.38811234498866259 9.1704369431818389 31 37 33 1.2775473672825461 21 61 19 60 20 40
3256 0.61381414979785454 -0.28351082479415651 8.8021692519467329 75 84 93 1.145663222831758 16 816 17 652 21 760 19 562 20 643
3260 1.4164432578048598 -0.24402358327414858 8.6931039291417829 72 78 90 1.6730637415083762 18 449 14 453 16 394 17 223 21 200 19 182 20 120
3262 -0.22057269102440319 -0.98443740078034658 9.793711465310091 49 50 55 0.93758479205692424 18 519 14 457 16 310
3265 0.54588031736147791 0.71644121992255361 5.2992954791338605 29 32 35 1.3990918494093956 18 422 14 476
4432 1.9557442738779143 -1.1907205111086574 9.9072216743685324 235 245 255 0.80335955572440199 6 649 9 668 30 421 5 635 3 658 4 608 7 698 31 333
3267 0.34743482164320005 0.68956650914493167 5.2879325706087332 83 86 93 0.92315176629265128 18 419 14 478
3275 1.0590666532212945 -0.65320764365415229 9.3396943801450387 78 85 93 1.1110576694494605 18 747 14 566 16 397 17 327 21 379 20 163
3278 0.44166637786705149 -0.67657175145295079 9.3997028934177038 78 89 94 0.39498253894553587 18 678 14 572 16 584
3279 0.33473467773050058 -0.33104193387335856 8.9010548878777289 83 86 94 0.67247407331715625 18 737 14 586 16 590 17 312
3281 -0.25659212661829539 -0.42555907562706824 9.3230642749589023 35 37 41 1.2676925386350473 18 758 14 599 16 656
3283 0.76254619517173128 -0.66210618361770457 9.3680261369991147 76 85 94 0.55587714333223659 18 847 14 618 16 786 17 556 21 448 19 693 20 743
4005 1.2853246041223327 0.43959940589568003 6.8539111338378476 0 0 0 0.40620057220065486 14 327 15 419
3284 1.5150686181091937 0.45388754568786438 5.1930144319397211 53 58 61 0.75271785111201905 18 514 14 621
4442 0.5992040798186774 -1.2263169160137399 10.111523236249274 162 166 168 0.50043020871039334 3 1140 7 1110 4 991 5 901 6 909 9 1346
3285 0.49952653026092819 -0.48375267822256884 9.1210429220265716 85 97 100 0.96573226264540091 18 791 14 629 16 471 17 317 21 322
3290 -0.20966788442540124 -0.78440138373638546 9.6043796947979061 40 44 51 1.5623275525276186 18 522 14 689 16 532 17 275
3292 -2.9220346759587144 0.57555748990698541 1.8983534755249767 0 0 0 0.24357545273324852 15 829 18 806
3295 0.36985282201073333 -0.15563345526371941 8.5874484123664487 75 85 94 1.0784510007579569 18 874 14 717 16 638 17 454 21 466
3953 1.2453896136610321 -0.10839077933449245 6.7737905789369757 140 130 115 1.5145565073674259 19 176 21 222 20 153
3296 1.0317438542815109 0.6130638200899603 5.2778095353679593 37 40 49 0.56950392985584419 18 753 14 722
3297 1.0065460617924129 0.63730948219463335 5.3085869588708778 36 40 51 1.1826802429163481 18 879 14 728
3298 -1.0745935309106973 -0.99462515516718752 11.186432078909805 110 113 121 1.0788258361557943 18 880 14 730 30 1015
3957 -0.20782545929194413 -0.44002420023343414 9.4454353836736864 8 12 13 1.3368106061623874 19 193 21 246 20 247
3301 -0.78410848758880669 1.5577750278011593 4.5221853600607913 232 232 240 1.5422376252253778 30 760 14 809
3965 0.57089421721468525 -0.092441354686688709 8.5778288917686307 65 70 73 1.3090626991771512 19 312 20 414
3308 1.3542155730278562 -0.64205509730250987 9.2872706597921297 81 84 93 0.76364853137286093 18 785 14 861 16 571 17 313 21 364
3909 1.5472187932333774 -0.22323030724455237 8.7430187993165589 72 76 87 0.7553158300817211 21 724 19 588 20 792
3316 0.6473785936603208 0.017064955921316759 6.7412849899458953 79 85 97 2.0395764149278017 15 753 14 924
4474 1.1907290896065197 -1.2396656030693758 11.208807074488716 85 92 111 2.1835555784429674 30 1060 5 1412
3317 0.055645102319652737 0.019997738206378835 6.6739015390741274 74 84 93 2.2637215079406845 15 745 14 948
3913 1.3534825188326596 -0.4146965968951789 9.0556247658413209 68 79 87 1.516965367737841 21 528 19 668 20 1008
3320 -0.30133157495650109 1.4430712339959491 4.7919219602619103 127 134 147 0.059546944320360111 18 778 14 1039
3917 0.89280214109028977 -0.28104001438541687 8.7504632639513549 74 82 84 2.128012356503874 17 564 19 694 20 645
3324 -0.14643060278011258 1.7846253989269056 4.4843390684297519 96 106 118 1.0699818437061033 18 1368 14 1065
3764 -1.1799503018980275 0.99262909952577394 4.5810631564930313 250 248 249 1.4662360512934489 17 495 14 1046 26 753 18 573
3712 2.2094253085769631 -0.046308007527682868 8.4250865070256182 77 88 94 0.23488249599413649 21 350 19 270
3345 0.97184294984372188 0.65891103848173094 5.2605449400668363 28 32 36 1.9346813885415304 18 1268 14 1392
3357 0.42860207885477603 -1.4529928275032424 10.671947652627784 223 224 219 1.7952108147067123 18 26 14 20
3360 1.5902929082403843 0.39562761529159313 6.6311855453755504 29 33 42 0.61893830944112116 18 188 14 461
3375 0.94980728659675207 -0.18494390896100288 8.5570918417803288 89 91 104 1.6650852119078146 14 111 16 69 17 47 21 30
4259 0.74430115272417485 0.52809043483674234 5.7059986364681521 57 82 128 0.69885898369598243 6 528 5 784
3376 0.13312564674706687 -0.55351378273274376 9.298776379750409 81 90 99 1.3901032810824827 14 77 16 72 17 40
3744 0.27839494457265285 1.6729689545546 4.5799249023718653 242 241 239 0.070632331641974938 16 489 26 414
3377 -0.14578296492303405 -0.18960656153214853 8.8309002158738892 83 92 101 1.5778763797029627 14 126 16 79
3391 2.9519755573263056 -0.50897782536897096 8.794511567936901 86 97 103 1.0571677459397451 14 297 18 407 16 212
3824 1.8663321035002645 0.069995191260637357 5.0560564967893535 68 69 78 2.5305405302175825 18 712 26 460
3393 2.4397298074103464 -0.25145900370853647 8.5757268364144323 34 38 49 0.6881610478935638 14 220 16 233 17 131
3828 -0.35587834284879943 1.3805347689112546 4.7722584622316457 245 250 254 1.5136163724682619 16 1240 26 739
3398 -0.053217901853031525 -0.46822507805330571 9.122635905953743 57 63 70 1.4201069315833967 16 271 21 110 19 116 20 101
3401 2.6022256413371223 -0.092883382300799691 8.3791391787472147 115 118 135 0.92602553892073136 14 437 16 284 17 204 21 139 19 241 20 200
3402 0.12852636994952543 -0.91660727869739067 9.6250262280966297 110 119 129 0.62499416009358522 14 321 16 304 17 176
3404 0.025254974915809157 -0.79390750146985933 9.5842299607188259 104 114 124 1.1019409996064138 14 322 16 311 17 235
3405 -0.18990334053755559 0.41583703289428803 6.2151952395669525 102 106 117 0.57716092859064816 14 479 16 325
3407 -0.33035800196894383 1.7087769387719818 4.8305640364399238 223 223 233 1.1656651453345201 14 337 16 329 30 174
4291 -0.11021249589984471 -0.98934621532896749 9.7847633679992292 241 245 253 0.20051319477297649 6 625 9 770 5 907
3617 -0.31893563411375875 -0.35735994404471194 9.1892756458248588 54 62 64 0.87019753505878217 17 294 21 169 20 182
3621 2.0501500439026232 -0.20597364274456811 8.6646257843993091 56 67 73 1.4478953173445905 17 214 21 189 19 174
3412 3.030014104277313 -0.34863281509833227 8.5051444470425981 87 102 107 0.30608974819091506 14 300 16 370 26 223
3780 -1.1832406574558645 1.6540947437970928 4.632210295425363 214 211 206 1.6522527708727375 18 582 26 855
3413 1.7327510709740959 -0.22587720649627205 8.6791472957973852 57 71 82 1.6250394439275408 14 451 16 400 17 216 21 196 19 196 20 123
3414 1.0172380951537217 -1.3605051532065409 10.86046582063196 70 85 93 2.0865429612393993 14 510 16 413 17 260
3625 2.6998120767225569 0.066021547994284682 8.381248454498337 37 48 55 1.0661871040185218 17 349 21 213 19 325 20 204
3416 2.5210543017765419 -0.22208290487274726 8.1943132334218216 91 97 111 0.81356027766380523 16 421 26 361
3423 -1.7718703153569169 1.6037097724480993 6.387866132438929 35 34 32 0.47195722651818828 14 1180 16 460
3425 0.62784331632185586 -0.10377128044501255 8.5641724299256836 51 59 70 1.3608426426920699 14 345 16 480 17 272 21 264
3732 -0.3505609723743307 1.5333712633941021 4.7194644825249048 213 213 211 3.2756611450758313 26 177 13 480 16 169 18 194
3429 3.0247948966212359 2.4061234077312452 9.9053258037255265 51 63 75 1.2676657833338716 14 994 16 504
3436 1.5535822813990376 -1.4183245751374676 10.889847292940249 56 69 77 1.5655903541999499 14 555 16 561 17 257
3437 2.0183093293226264 -0.10756348651357864 8.2020004734679013 71 81 93 1.044962326625692 14 1153 16 569
3439 0.62806713282867477 -0.87564533382252818 9.6480100316725199 78 89 97 0.65296153859881623 14 864 16 610 21 278
3441 1.1089642087735325 0.10252007596565382 6.8126636643418559 165 165 165 0.48726757249275127 14 627 16 616
3442 -0.016588753003200254 -0.17034968682018395 8.6070519871499922 78 88 97 1.1695884295587005 14 733 16 637 21 635 17 598 19 724 20 866
3443 -0.1390826068192309 0.062652135462571215 6.7318121042541392 225 225 234 1.48522302182549 14 826 16 658
3445 -0.53449112025324585 1.6611334986766841 4.6483321517634835 216 216 224 0.25385499622651642 14 805 16 690
3446 -0.30004845519071849 2.1022799452420284 4.8045522469176962 200 204 215 0.11690242478746857 14 1083 16 692
3448 -0.59158456152863992 0.51063504123902526 5.858745574669519 239 253 255 0.53966981232209132 14 984 17 617
4341 1.5763166142930745 -0.77458599701473752 9.3676465968297311 73 79 100 0.045104575427672586 31 700 5 1246
3450 0.15870979294514653 1.6314415217813167 4.5261925444427051 248 248 250 0.56626095363722317 14 828 16 745
3453 -1.1126449676103949 0.92821305710417612 4.9235883588563762 239 240 244 1.3654736580521007 14 786 17 1220
3455 -1.6437245607134259 1.9480247224340497 6.1113989736875709 133 129 120 0.49465978191911175 14 1347 16 771
3457 1.8660997728752287 -0.017951129398515061 8.4435538644116779 89 103 112 1.1753692606438062 14 872 16 784 17 410 21 423 19 432
3605 -0.42519482004127374 0.46660847720410992 5.6840606640894782 49 63 75 1.4605174940773 17 249 21 101 19 61
3460 0.17889022581245656 -0.16097727431225006 8.5823381343211445 90 103 111 0.83083112502964662 16 832 17 1097 21 664
3461 0.27056119378610466 -1.2250200097580508 10.371307095867083 115 126 122 0.94107946355126026 14 1591 16 912
3474 -1.4895788843149071 2.1856336941254018 5.1118521760325839 40 50 49 1.8360927020583606 14 1114 16 1041 26 728
3475 -1.3702223342126081 2.1516920745149397 4.9677739169183033 79 83 86 0.75401516242544608 14 821 16 1058
3476 -0.13384216587142517 0.75425391563916788 5.3915288815709959 73 82 91 2.20025993142945 14 1415 16 1127
3693 -1.9145884031287186 0.9945446052320186 6.5542781778225505 37 45 37 0.62024727272392866 16 969 21 1012
3484 0.23158268285216752 -0.68191124131658654 9.4876478485284679 35 43 54 0.054911290421064129 14 249 16 116
3486 3.9472315831947213 -0.81390104202459357 11.018778513079095 64 77 83 0.55401533621459942 14 96 16 359
3493 -1.2032125083679297 0.17680176514714227 6.1133490307417775 151 151 153 1.9064418046821094 14 982 17 951
3645 1.4228501954617807 -0.44630524362262036 9.0366689522520058 79 92 98 0.49093904620331974 17 411 21 367 19 443 20 499
3502 -0.26590864569095968 0.44618689358520885 6.7054342943430987 82 95 111 3.1468799168512209 17 28 26 38
3506 0.60249190820686738 -0.19596035897722769 8.6399474344722638 72 82 87 0.79140875432295643 17 54 21 20 19 23 20 28
3507 -0.66127263341086218 1.568497051842981 4.6042250423155968 127 133 149 1.5285926622182324 16 165 17 75
4154 3.1313511741425577 -1.1397023721837631 9.6645121284333779 85 89 97 0.70720344180208161 6 332 5 248
3509 1.0522204604863383 -0.28254724130946807 8.8662096444516596 26 37 38 0.55112402742614364 14 248 17 114
3515 1.992930988896763 -0.83093644953058132 10.217584061515824 77 92 99 0.8512028300517539 14 466 21 133
3518 0.12585171112262747 -0.066135065455748293 8.6174045953615952 57 70 79 1.4336355014161715 16 319 17 242 21 163 19 189 20 170
3522 0.94135196328148552 -1.1041082857726128 9.9387014315929392 83 94 100 0.97851348307030095 16 409 17 262 21 228
3669 -0.13996238597755034 -0.51971354456603935 9.1642099724040165 106 118 114 0.56154480700802867 17 455 21 594
3524 -0.27342258913742867 -0.38817671497558814 9.1989442253504947 9 17 19 1.9507428705422192 16 384 17 291 21 167 19 195 20 135
3525 -0.30829850442589829 -0.26058256683927727 9.1158056842136972 34 44 43 0.89394906202377067 16 499 19 232
3538 0.73952911143773958 -0.14972887034796895 8.5326902322750744 69 79 87 1.0406703794722298 14 679 16 787 17 437 21 567 19 807 20 1360
3539 -0.091579673786546217 -0.85284916885306261 9.5741416054526294 54 65 73 0.1633035589875238 16 587 17 443
3540 0.35340567577872894 -0.34477807379931685 8.8816038620240381 25 28 37 0.95628608448081542 14 1366 21 371
4186 1.6069923953126783 -0.76801051609813065 9.4471518160559587 231 240 253 0.20731220180029006 9 442 5 415 6 424
3541 0.32018760763109377 -0.28233367455991465 8.8397381953061167 69 73 82 0.80028864251854759 16 825 17 453 21 465 19 489 20 570
3757 -0.72848644330960211 0.71518091674194428 4.5638684124961655 150 159 173 0.71897554315001 14 765 26 696
3550 1.3763919384414203 2.2946395998035656 7.4766430647293722 91 99 111 1.8413254322788584 16 789 17 690
3705 2.245446584196678 1.4663975077712741 5.1487429049718676 43 48 44 0.81845525782695516 17 338 21 1107 19 890
3560 -0.5826198450093989 0.66296895320888971 5.5801430604185054 99 107 120 0.043481367816544117 14 762 17 947
3566 -0.20983956384540245 -0.15570019915068367 8.6161930972310525 62 72 81 1.4348636434245321 16 890 21 953 19 532
3653 2.4217984127286369 1.5815476404164672 5.3779193974017767 75 71 66 1.8749320233448834 17 431 21 437 19 429
3572 1.7305940261181321 0.65216987640718482 6.8260728846552139 53 67 76 2.2021089091215567 16 21 21 17 17 22 26 14
3573 0.24174144183464633 1.4231017127070342 5.3685808943897717 83 90 100 1.3934015213424855 16 172 17 74
3657 0.072246071747774546 -0.18376902670752962 8.84297129410891 73 76 79 1.0694899050437554 17 707 21 476 19 496 20 250
3576 -0.14047292627759089 1.044300149122779 5.0537513849591837 53 61 72 0.91846430329629325 14 485 17 488
3578 -1.8510335836935778 0.78532108848119564 6.7450995997026357 36 37 31 0.73665854447117818 16 519 21 260
3661 2.2435247354283994 0.60914882739526677 6.5403069982495108 28 35 41 0.089799460157950664 16 574 20 615
3580 -0.67435552879012872 1.5760088681035158 4.6358420725484182 184 188 199 0.97481210352764547 16 691 17 850
3582 -1.9061500387454413 1.0340737359345766 6.550363334618436 122 115 107 2.0531222887931215 16 1199 21 1191 19 945 20 1441
3583 -1.910253014402989 1.0313795593895148 6.494152072484658 64 58 53 0.017706994497273903 16 1203 17 990
3585 -0.042499973230116089 0.39225203260198199 6.0744964624220268 42 52 61 0.54220897855049843 17 5 21 2
3589 -0.15520902033781017 -0.39967267877933932 8.9685130245822808 84 93 102 1.3086683197852709 17 43 21 24 19 28
3590 -0.1973773208764617 -0.22547701166790982 8.6583087352806523 80 90 99 1.5024433386545364 17 30 21 25 20 24 19 22
3591 1.207915169295352 -1.0324290950517168 9.3670855211184509 97 110 115 0.018092479599124522 21 38 20 49
3594 -1.9655439557454539 1.0037400864749233 6.5063103387307279 29 38 35 1.4011783763343164 17 45 21 42 19 44 20 72
3596 -0.27644272865809882 -0.35096912648899992 8.9995599884587723 33 38 41 1.1521161420972885 17 71 21 44 19 48 20 41
3597 0.39020134111649185 0.065176231874368787 6.7124649319587828 224 225 227 1.9665910781081537 16 73 21 47
3599 1.8107304433192026 -0.90569818948090819 9.6945074406051432 104 115 121 1.0308277151342944 17 60 21 71 19 40
3600 2.0775325786984609 -0.27060402665645811 8.7412016593054851 82 92 103 0.85341480348160059 17 82 21 77 19 79 20 66
3603 1.3863857075076993 -0.33230231183103304 8.7177411332685413 79 89 96 1.35285755557837 17 84 21 85 19 89
3607 0.11459758439048563 -0.41381685263510593 9.0286757183387394 90 103 112 1.7274842725169297 17 237 21 113 19 119
3609 1.457018061544731 -0.3437347588493227 8.9270331279733153 89 102 112 0.95710310046978464 17 166 21 128 19 105
3610 1.7912201981745206 -0.17143937010432184 8.6259963002149931 98 108 117 1.0735616633540865 16 292 21 129
3613 -0.89758600671956557 0.23399004952042551 6.6079159361666937 107 120 133 0.96648126255966749 17 143 21 150
3614 -0.26767010812076741 -0.3642861386317946 8.9317619012179392 26 40 43 1.2052697590482413 17 187 21 154 19 191
3615 -0.19662448966620011 -0.43951803562498287 9.1013430225519159 83 97 97 0.65499894886907906 17 288 21 165 19 225 20 193
3616 -0.32696515227608897 -0.43151670627965216 9.2251319914929404 83 88 86 1.616323299593438 17 290 21 168 19 178 20 178
3626 2.1354054356056418 -0.53038746373590651 9.2601525648687346 84 96 96 1.0322556003549721 17 348 21 215 19 247 20 217
3628 -0.27057569815392385 -0.24981249075341971 9.0707719421948934 10 22 17 1.5746977134375237 16 615 17 298 21 241
3632 1.5819757969548667 -0.96384870679513801 9.844441063657511 46 57 63 0.49563535187314461 17 399 21 309 19 251
3633 0.73196960620570195 -0.2396484083488408 8.6608151368317294 68 83 88 0.2726363354752569 21 312 20 541
3637 0.47853371924151783 -0.23050496615520341 8.7064777648969205 26 37 43 1.27575699296961 16 632 21 332 20 334
3644 0.38550351392455456 -0.2388155842659391 8.6592698924927074 23 33 35 1.6296274855976973 16 634 19 309 20 190
4526 -1.2124143161931749 0.83849066713972842 4.7343403149308445 0 0 0 1.8997108373390299 18 934 26 761 16 760
3647 1.233275534263822 -0.2949753709355758 8.7742084957005684 72 85 91 0.4305216917692678 16 578 17 551 21 380
3649 0.10047325692459091 -0.67819904046421342 9.3493827715744224 70 81 86 0.88145034924900922 17 714 21 400 20 696
3651 2.2809762688499444 0.73166755767338398 6.5099505089328016 98 92 70 1.5726827399607675 17 756 21 411 19 276
3655 0.57873033765746107 -0.57858420692559165 9.1008133868153749 87 102 109 2.3932504407727069 16 1169 21 452 19 516 20 544
3658 -0.022418192909008865 -0.20519573147309381 8.5691906118546495 23 25 37 0.98757509645067199 17 594 21 477 19 539
3663 2.3890677622109102 1.4093292203601082 5.3852987560278089 83 94 98 0.16450273788334352 17 557 19 512
3683 0.87319762569186854 -0.36668442399274842 8.9727342169374609 78 92 100 1.163953752596945 17 898 21 912 19 695 20 862
3686 0.6203905851624183 -0.51717629877323434 9.3755879200824062 71 80 87 0.78304737175038952 17 572 21 916 20 646
3689 0.62388867888401434 -0.35473849969890442 9.5004650428464839 71 80 87 1.1373813623122393 17 913 20 1593
3690 0.24209023077605651 0.78813335028328491 5.4263725017353472 90 101 107 2.3021995192987896 17 483 21 948
3692 -0.57522211025342307 0.29383838766871301 6.4602426669849731 226 226 236 0.89843266738970118 17 941 21 964
3694 -1.933265261398261 0.96239232858550172 6.47672952949865 46 44 32 0.54261165572739456 17 989 21 1014
3697 -1.4290110768125157 0.19646312071871283 6.6260665532092826 151 152 144 1.820355627924596 16 933 21 1035
3701 -1.8746685070001294 1.2364371130881093 6.4937841524735882 127 129 115 0.41711852073214462 17 861 21 1068
3715 -1.5191862984874926 0.55468475010666451 4.4119758388016557 246 246 248 2.1036104914561351 17 494 21 632
3716 -1.8307122594042624 -0.26112956213966537 5.1021184778370392 0 0 0 0.77914303224571202 16 1001 17 662
3717 -1.3564373192383863 0.57165766775813498 4.8701206153902907 253 253 253 2.0486300420074981 17 843 21 853
3723 -0.18001792587125556 1.7981959171852893 4.5103349749293828 94 99 105 0.52739299698205966 16 34 26 41
4383 2.8347220647677607 -0.54841101740375542 8.2651463232759994 0 0 0 1.4446832774078002 2 540 9 806
3726 2.4651682761263385 0.68236763672536482 5.0516629195369465 223 225 212 1.1795382954294964 16 98 26 79
3729 2.5550153570815439 0.35743737633171185 5.4906798237947596 57 63 75 2.0755261124477546 16 201 26 148
3733 -0.23396999630475748 1.6896911646677573 4.5204092827274076 206 206 201 2.7074846250254736 16 328 26 178 18 135
3735 0.69328138256798688 0.34360762670730494 6.9962564563565302 207 206 202 0.51943488795693404 14 355 26 270
3743 0.0076592348327965626 1.3222004710724586 4.9246582544116944 106 106 108 1.6940400075157804 16 512 26 411 18 571
3760 -1.5344527592540669 2.0835420889172251 4.978858223311021 0 0 0 2.5018396284449338 16 523 18 1395
4129 -0.37656098331396626 -3.0460007550050294 9.8091341749213914 98 114 148 0.35393922695583857 6 119 9 117 5 153
3779 -0.26278862168604289 0.049344346453140418 6.6567887693512366 191 194 192 1.951678465287259 16 889 26 843 14 1221
3797 -1.2817155510025517 0.66586181638264907 4.9554160266642064 240 239 237 0.35847739378635518 17 1221 26 1289
3816 0.97025377360198883 -0.03650490336811759 6.5129664342015783 120 113 103 0.66781240131090658 18 1578 26 299
3838 -1.2378176289330034 0.8088258408937814 4.7535578626332864 136 135 133 0.73842359923056144 17 846 26 1061
3844 -2.1102611999934955 0.94848140088230404 5.9608357619094363 0 0 0 0.43706247495378642 16 459 17 634
3850 -1.29035622247056 0.29747615876268213 6.8222591866308813 143 137 119 1.9959638907566619 21 147 19 62
3855 2.2583604277813341 -0.67337067364649672 9.4040654150834211 111 122 128 0.70741542670414159 17 129 19 74 20 86
3856 1.9888604862932142 -0.48448758396933983 9.1560306837578516 103 111 123 0.901007641472654 21 73 19 80 20 67
3858 -1.3922894161312349 0.069607698995244841 6.39110906817531 95 96 101 0.59683999005988131 21 148 19 111 20 79
3859 -1.4126983084461491 0.016663044710162035 6.2775412228144454 187 184 179 1.3280369444251723 21 149 19 112
3861 -0.20329553122652558 -0.56060710233214539 9.1575028262969713 100 109 115 1.0544565197283304 21 109 19 115 20 77
3862 1.976463074564375 0.63714174858502004 6.8032287476312554 55 69 76 2.0166186180278816 21 19 20 154
3866 2.480576990910992 0.83108925183534876 6.5865200758506059 184 178 178 0.092089292944376247 21 37 20 285
3867 -0.27317210737471909 -0.55831669678512397 9.1548750623036526 29 39 38 1.482973568822495 21 164 19 190 20 171
4238 1.4477563833328626 -1.2170429320843219 10.040062949412851 243 251 255 0.39237748724970051 9 745 5 638 6 908
3871 1.4184982893390932 0.56646390760782039 5.3077011158995191 228 219 220 1.0110248745350643 21 225 20 275
3872 0.3395456529603188 -0.2704858083306797 8.8107786603369682 22 26 30 0.98241644973811071 21 252 19 256
3882 0.57997174804591822 -0.40109988933098756 8.9756069929934696 83 100 107 0.36374026145940119 21 318 19 316 20 339
3883 0.66521700443092446 -0.59214077875012916 9.2933119060904517 89 89 97 0.76470531088249805 21 451 19 322 20 341
3884 0.87647805291971614 -0.38205057264221604 8.9372256249216804 107 107 119 0.40697332122415819 21 280 19 328
3887 2.3464764432338843 -0.40603779495450604 8.9617321754393338 93 102 109 0.82468742920147842 17 393 19 350 20 683
3888 1.272806902829736 -0.65054724590096824 9.4477502777770663 88 92 101 0.23561447056158491 21 525 19 351
3891 -1.3734107916860618 0.035050912113414906 6.3023700793222401 195 192 187 1.8689466138925415 21 984 19 382 20 895
3892 1.5803261045060395 0.29221171572776511 5.6165389820345677 33 43 45 3.1011778045285396 21 508 19 400
3898 0.62225858020853919 -0.67349078339964474 9.5149221710985596 38 41 50 0.54744378041885744 21 558 19 468
4270 -0.38186978910904001 1.3980828954400402 4.6736266454066895 249 250 253 1.8611536271419218 6 484 5 824
3903 -0.0029744926946793913 -0.40888462536378062 9.0504683013821747 119 132 140 0.46384764145709251 21 588 19 546 20 722
3904 0.11677496977913618 -0.59652724009010683 9.2806409693129677 105 111 124 1.1863054933769375 17 587 19 548 20 573 21 273
3905 0.38865996367385014 -0.75793759033479968 9.4460853206316919 100 110 122 0.013847617644947866 17 901 19 561
3908 1.1337752504365277 -0.38760269325152591 8.9075666373302571 77 85 100 0.29543155873871207 21 736 19 580
3911 1.7624901389361904 -0.80956743092078209 9.8342946320881186 85 91 91 0.69778610141856379 21 1092 20 808
3914 1.0044280287645233 -0.88043262998017047 9.7018681294092115 27 43 49 0.4148850374955243 21 905 19 672
3916 0.94048343745097718 -0.69014059922688542 9.4736671729070867 83 97 106 2.1080855277445427 21 539 19 683 20 427
3922 -0.85558019792310391 0.00030399035431854501 6.0141131568038517 111 114 122 2.6502570859191419 21 858 20 882
3923 -1.7960107371948726 0.69062324959373089 6.7816212077419031 39 40 27 0.75092617586354138 21 384 19 829 20 1774
3925 1.5326155677475808 -0.067545121564649563 6.6582238346369715 154 154 169 2.3752533110479481 21 866 19 873
3931 -3.4424701289429556 -2.5825371844740368 4.2880243102098934 9 19 21 0.22234202386442953 21 1230 19 959
3936 1.9967170601741475 1.7733264850210395 5.1333770338172267 0 0 0 0.55109907714098871 17 1150 21 915
3942 0.14256658078484277 -0.59416706005743214 9.2857880300549098 90 94 103 0.22255568675848364 19 59 20 36
3946 1.3308240290097513 -0.70284748724991108 9.513183805865232 125 128 143 0.94973811085040039 19 88 20 75
3948 1.2103573599049127 -0.41561649339896423 9.3772571236331679 108 116 129 0.6495679939884631 19 55 20 90
3951 0.38290013809556306 -0.63235468750844015 9.3662830615697228 53 57 66 1.1153047593518459 19 187 20 140
3952 0.94469574020916802 -0.2702250963660186 8.7547441269635904 31 40 49 0.92882999545029543 19 131 20 148
3955 1.4277060572815774 0.30462123353224613 5.6261604001728935 46 52 53 1.399335469083173 19 246 20 202
3961 -0.48044218120025189 -0.49350246107698159 9.0448350600584941 5 9 7 2.6052030817316334 21 171 20 301
3962 0.13379570495958398 -0.4659500707421767 9.0267746546224039 91 94 103 0.74948171834929056 19 301 20 320
3963 0.15415071584938503 0.2747547610114971 6.9006978349941965 123 125 122 2.5682893324757821 19 926 20 329
3964 -1.3557154999604164 0.017153376359032323 6.2963765394180626 212 211 207 0.084948486646496749 21 827 20 406
3966 2.4739886942328368 0.10041250268799409 8.3023798666695274 117 121 137 0.074961954500508549 19 410 20 456
4334 -1.4122577872873481 1.7449803306965037 4.322177863581282 185 178 172 0.38388606127094982 3 561 5 1202
3967 1.1949559576780171 -0.39383395116949538 7.9744286850492765 125 129 140 0.11796517834464505 21 363 20 486
3968 1.5182513885755391 -0.58051197050948478 9.4246088806252022 25 34 36 0.97144474166901995 19 591 20 493
3970 -0.30045972978928809 -0.23237754467851315 9.1877288482366755 14 17 16 1.6593989864023695 19 233 20 622
3971 -1.9365117401698635 1.2402557838874095 6.3356248975702778 27 30 15 0.63447022643000728 19 619 20 640
3972 0.36617641196896222 -0.51013886353484827 9.2885826229821724 28 33 36 1.535114273360529 19 394 21 327 20 680
3973 1.5266926721940677 -0.62945743635048623 9.314875404057247 106 109 116 0.83004739491608792 19 657 21 418 20 804
3974 1.7496306550146374 -0.69334237628668016 9.4563302260476103 83 88 92 0.16253355608860726 21 409 20 810
3978 0.98637880795785338 0.026327180501110228 8.4040228798908601 135 138 153 1.7329099615076764 19 464 20 854
3979 -0.46892753318127417 0.42474551973861957 6.6511898909991025 226 227 231 0.81119919725356815 21 1181 20 885
3982 1.4475197137625737 0.35568086623213441 5.6431502824386834 37 48 43 2.8560000255246094 21 413 20 941
3984 0.80825958375952756 -0.29553217904357898 8.7890968019884532 63 77 77 0.63779718261803753 21 751 20 1050
3993 1.8672714339397263 -0.07018514783988071 8.4502004612365997 106 110 114 0.49814093479551602 19 602 20 1521
3998 -0.51243556770275311 0.49564850256724224 6.9466885149758344 147 147 147 1.3125233734116857 19 263 20 195
4191 0.85146679895284028 -0.45147223058005803 9.0020403898092134 64 72 85 2.019819071838671 30 239 5 435
4046 1.590758317975967 -1.4626121991012482 10.926233286800647 171 177 183 1.3235319967599957 13 948 12 854 2 292 1 287 32 556 9 1571 3 1268 6 1374 7 1539 4 860 31 528 15 890 33 380 5 1031
4052 -0.97213545038183213 1.2119160328664262 6.130502886731664 26 29 34 1.1561470575891404 36 62 58 39
4053 -1.0140019837198293 -0.30846898275788009 8.1065102866344461 139 143 152 1.1168595415669089 1 79 58 44 8 67
4057 -0.9700103308879342 1.0730433865556617 6.5358923302679282 83 94 98 1.7939655389606963 36 173 58 64
4059 -8.1019919861128056 -2.4745182389929439 18.500390600625334 122 126 129 0.02291515383322297 36 17 58 75
4060 0.31613704264805487 1.8147177875266636 4.333408076040433 69 78 87 2.0414389833162572 36 735 58 119
4067 -2.2505253581346785 -0.97489824003968428 10.966518324981555 177 182 191 0.026481342853002805 33 431 58 211
4069 1.1167560558351346 2.6825995886036118 4.4884161549179291 61 65 66 0.55229970263823791 36 665 58 289
4070 0.65716405560606217 3.617577695736701 4.6711975155604248 39 53 50 0.95960224748319889 36 596 58 337
4074 -3.3403572625292726 -0.81228500519120905 11.00754743908637 168 169 171 0.51070303904474079 32 816 58 396 11 652
4078 -1.8150800435672443 -1.6318196350257264 11.7016994691676 40 42 54 1.6059244546183937 6 3 9 3 5 2
4079 0.010584901148097972 1.0090107381701323 5.2340610175952271 0 0 0 1.4712145242810828 3 3 6 5
4080 1.6298341913814773 1.5297096319340857 4.4275413928988776 216 213 208 1.453657126757494 3 5 32 6 11 6 5 6
4083 0.1687483400654366 0.18821445501476708 6.9273578119147832 0 0 0 0.9733179450509688 7 9 28 3
4085 2.7189855110278147 2.1848106718761331 7.8087746770118089 0 0 0 2.1711108474712799 10 11 15 7
4090 0.857830525153221 -2.4281311262590517 10.397328914033062 154 155 141 1.7963337003998796 4 17 6 25 9 17 11 15 5 23
4094 -2.692530419161038 -2.4565844130602668 12.132543701530899 140 129 107 0.94135377874261139 6 26 9 26 13 31 5 30
4098 1.4116765749004416 1.3408207034657591 4.299444676813442 0 0 0 1.3203347424089762 6 45 9 39 12 45
4099 2.3713371152698453 -0.13741337463117378 6.4724496356281245 0 0 0 1.2285782357072326 12 35 13 51
4100 -0.50614878278778885 0.32093486946932659 0.85472222941479337 0 0 0 3.1748747797976273 6 7 9 31
4101 -5.8541987145523473 -2.174902409176624 14.284057498340385 109 107 107 0.71180344940853968 3 50 5 48
4102 -1.0523499994352468 -2.1802942066173552 12.263080357849914 0 0 0 0.12427012120662595 6 47 10 53
4104 -7.2253651063784901 -4.3202216939108897 16.692454461693728 0 0 0 0.39184372598378225 9 54 10 47
4106 2.0038532105803282 0.42653315210984183 7.3760725023107829 17 20 29 2.6393122646781366 9 164 5 56
4108 -0.50056274026706804 -1.5596399323298082 11.147599079513071 82 86 89 0.61958237205206745 3 52 5 61
4110 1.3104011670759368 1.4035941807235652 4.2297877923399296 0 0 0 2.0860619031920384 4 137 32 201
4111 0.059538307083065151 -3.1029371296615134 9.8360805417230885 46 80 151 0.35952030084284964 6 82 9 78 5 75
4113 0.88510085877959699 -1.8004155339835415 13.11611784711933 0 0 0 0.32074814345383251 3 107 4 151
4114 0.81760557109167442 -0.70755882232802159 9.4278450286271624 58 64 88 0.19123348879072077 6 113 9 95 5 93
4116 -0.15971905143263115 -3.226274459551207 10.202925147056121 40 81 147 1.1151614689779559 6 120 9 118 5 109
4117 2.0316566412051782 -0.70003661553045715 9.3579252073997257 46 54 73 0.36344169074359917 9 113 5 110 6 109
4118 0.50920299852145468 -0.67286319760136648 9.2842428516913191 0 0 0 2.071142216714168 6 102 9 94 10 87 12 120
4119 -2.9587243721199403 -3.6934692395279165 12.58040397614851 30 48 87 0.23906636236259871 9 159 5 119
4120 -0.31368033630962755 1.4842356780164216 4.6915433252790173 0 0 0 2.6325553177729075 10 117 13 178
4121 1.1963014486688051 -0.067931383229481473 6.5736356254771602 58 66 87 0.20677890572690372 31 268 5 128
4122 -3.0243753152073007 -3.7072786154919948 11.709581167695493 112 123 129 1.647800811127468 9 262 5 129
4123 1.4913483119611666 -0.11153185225487421 6.1133473369446314 0 0 0 0.32495356134133441 6 138 31 44
4124 0.44014777363021013 -0.49968857142052187 9.2285891394513335 78 86 99 1.2369317143851617 31 165 5 134 7 169
4125 3.1632332747181509 -0.99268329551217738 9.2882580759700257 70 78 89 1.656389870962435 6 155 5 144
4130 -3.1390444835704563 -3.3699023289115351 10.487508948884518 39 62 116 0.48115663489205662 6 85 9 81 5 159
4131 -2.4960541992954104 -2.1432781285470357 11.851838266325046 0 0 0 0.88798052106781022 3 184 15 61
4133 -1.9149069613601797 -3.7920065861811674 11.891372807764398 105 114 143 0.34082186047686103 6 216 5 168
4134 1.3584893544384062 -0.24155963200503078 7.1203835236608031 62 69 86 0.36449394583909944 3 158 5 172
4136 -2.0171994181437176 -2.8159305311778646 11.683142032637674 47 65 79 0.78967374235168386 6 343 13 188 5 179
4138 -3.3806059105703592 -2.17669952511568 13.202227170260082 51 55 57 1.6895638237296031 9 333 5 181 6 518
4140 0.084736447455305369 -1.062046878400388 10.943522374406381 0 0 0 1.0676818052332502 6 250 11 113
4141 -4.5032084932824876 -0.54638641388681164 11.296910923206143 113 111 112 1.6601654857741921 9 356 5 195
4142 1.7401851121606935 -0.11511888322314873 6.2313872645350799 54 62 83 0.41895857121147384 6 174 5 197
4143 0.1508900855697333 0.1971441291428416 6.5243296182730459 0 0 0 0.31118362478717043 31 169 32 186
4145 -0.29377742377374355 -3.0463126173346553 9.9430272184000899 67 94 140 0.22653389559521378 6 217 9 207 5 209
4146 0.70340034347424585 -2.2023659296296834 10.462033932267902 173 171 159 0.90283722014766676 6 260 9 338 5 210
4148 0.60649334724808068 1.3941016970875573 3.5370551754707864 208 204 201 0.19293947775606263 10 188 5 218
4149 0.6358541058858963 1.4445685185255515 4.394550358844576 0 0 0 1.6052638058480282 10 169 11 186
4150 -0.014669975579922214 1.3374051878926874 4.8116408403806794 0 0 0 1.4057129444934597 3 176 4 140 7 179 9 505 15 672 31 220
4152 2.6761544003812747 -1.06368857551368 9.7876220830446616 52 55 70 2.0075189660058581 9 186 5 244 6 186 12 161
4153 -0.36966948934073979 -1.159471002221192 10.680308942404261 97 99 98 0.38422733311255231 3 326 5 246
4156 -3.531557276004178 -2.0152458665683732 12.532290908182819 139 127 104 0.20241869558579867 6 338 5 258
4157 -2.3692022325386919 -5.0291204202002318 15.545014790049986 83 92 121 1.3444481643615862 6 510 9 345 5 261
4158 -1.1871869108603128 0.0030116434080973823 6.3379801349841598 115 115 119 0.37146964102461888 3 233 5 264
4160 2.3944216726765695 -0.27846066107830897 5.2992065606613128 161 171 184 0.91834726395473787 3 426 6 321 9 314 5 277
4162 2.2681177157094177 -0.66864014462026555 9.2960409022188326 81 87 103 0.32853006552314784 6 437 9 284 5 280
4163 0.67880688474256334 -0.6708958514247978 9.3787552482820775 0 0 0 1.458288731603588 10 161 28 101
4165 1.3147295102920502 -0.76948541474559107 9.4708824314920435 140 147 165 0.33256020926652918 6 299 9 288 5 286
4166 -0.17837269866644467 -0.73137728341579089 9.4961551346958899 89 95 109 0.44521742431405764 6 295 9 287 5 288
4167 2.0697187960930954 -1.0557553332735026 9.7878418708031258 49 57 74 1.4357415810765199 6 184 31 183 12 175 7 226 5 302
4168 -0.068207331590442205 -1.0355315089359698 9.8025632735240915 77 83 97 1.4655278771298212 6 318 9 244 5 305
4169 -1.0555146285490395 -2.305864699368199 14.067112803762461 0 0 0 1.9678470720354815 6 521 9 398 10 177
4170 -4.9385909024893575 -2.4458406657416085 14.599114140322438 145 139 117 1.5584756874044841 13 546 5 324
4171 -2.2204784645969684 -3.6871460631635253 16.312632299467815 119 119 104 0.45397755797924666 9 336 5 332
4172 -0.15472195029667371 -2.5958461126918104 9.4437800266721332 0 0 0 2.133711016846549 6 345 15 459
4173 -0.25623134302901573 -2.7874018565067025 9.774082802425724 0 0 0 2.0796132688259776 3 385 4 483 7 412
4175 2.6139621410230958 2.0194002355961622 5.6945422427113819 67 74 81 0.96830980718647197 3 211 9 512 5 365
4176 -7.4521865508612724 -4.1709019954397286 14.606270683681059 139 140 124 1.841858678656308 3 825 7 970 5 370
4177 -7.45253434298992 -3.7955345922239294 14.984807818601675 142 139 122 0.99712733366731987 3 698 7 979 5 371
4178 -1.7232662381003203 -2.8477149220440072 11.710587947701553 62 67 72 1.6387486547020131 3 350 4 328 6 865 5 372
4179 3.030684792576019 -2.1887797810462937 12.750483733179138 0 0 0 0.88353098367172089 4 981 13 496
4180 2.6475436196350066 -2.2811776255261171 13.631905240215827 114 115 110 2.2343615985165908 31 523 5 380 3 1124
4181 2.4126615139925645 -1.0853185034808164 9.6135151701928923 89 98 107 0.48885798244433387 9 410 5 391
4184 -0.16610765478805931 -0.94282963715500279 9.8064609470000406 97 104 112 0.57414579704631774 3 322 6 407 9 424 5 400
4185 -1.3474310388118633 -1.0257095474011906 10.873821440951568 96 97 99 0.17193429447188424 3 317 5 406
4187 -2.631905383681147 -0.79250747598179583 10.930507661338938 80 78 85 1.0953877906410741 9 527 10 220 5 423
4188 0.68880971447856609 -0.58065168345117968 9.1968340492287854 0 0 0 1.1263863163046779 6 446 9 458 30 235
4189 0.29979023647668368 -0.52178473686730198 9.0096735203912619 52 60 79 2.0945821426121984 3 582 9 1114 12 643 5 428
4190 0.6256505347816832 -0.5394870632048151 9.2047539923489587 91 94 111 1.4786219598515951 7 481 9 459 31 273 5 432
4193 1.3037428074620949 0.59040949832447776 5.2743239729525166 0 0 0 0.062642894618852835 4 503 6 366
4194 1.0354933753915849 0.6669386383285798 4.645383316478414 28 40 56 1.5355566318141629 9 265 5 462
4195 2.4749310658912029 0.66824388405248691 6.8386738557750748 149 152 161 0.27134057282389507 12 411 5 464
4196 -1.2541841641685498 1.2421293948774925 4.1930726291649334 199 196 192 0.73459331876270539 3 550 7 1349 31 664 5 468
4197 0.11947901239652929 1.3604154702107509 4.1902035047366955 91 102 106 0.46768427530409712 7 1381 5 470
4198 0.51865164169469569 1.4376165949379192 4.3960480607708776 0 0 0 1.6512239357692777 6 486 10 233 12 572
4199 -1.1263170310246742 1.6510765208650047 4.2198084465277867 209 206 199 0.083127552954053524 9 510 5 472
4202 -0.12596975261387983 1.7846365589439361 4.2533690576455072 0 0 0 0.92800300047631479 6 524 11 143
4205 -0.19193258537517383 0.69321564849189654 5.4824052331784054 0 0 0 1.0661311451415334 10 243 12 678
4207 -1.5893174323406476 0.09940231118013651 5.7663572135776171 67 71 87 0.76636704333100258 9 469 5 492
4208 -2.8234615457214352 -3.4499076384516489 10.609781817220663 71 107 145 0.46601460720639515 6 685 9 709 5 499
4209 -0.14199181577087677 -2.75788995660956 9.3557647252470435 0 0 0 0.33019511067188317 13 520 15 464
4210 -7.4767732869463952 -4.3652780587828559 14.450396278802618 143 141 129 1.9015154632828777 3 712 7 745 5 505
4211 -1.8853427695715574 -3.3599984983952238 11.374163114023375 35 46 100 1.849835591659436 6 675 9 381 5 506
4212 0.60783631905426017 -0.22877530309703109 8.6864330416682076 245 251 255 0.32299319650873559 9 874 5 512 6 701
4213 0.21174057614793684 0.077254496623449784 6.5413348047600586 0 0 0 0.56292248505580655 3 476 10 222 4 424
4214 1.6106286895053272 0.26127024464825227 5.4273039578608273 48 56 69 1.9688168663013572 7 507 9 893 5 519
4215 -0.35747092927654123 0.43906420643591804 5.8878508643555234 102 105 123 0.30660853773103958 3 518 5 522
4216 -0.44161724066460634 0.45931224734008769 5.9531187965407364 107 123 147 0.23936830473511048 3 520 5 526
4217 -3.3535177478420799 -0.90966113645832958 11.072206045268565 0 0 0 0.17475741367874506 13 442 28 209
4221 -0.20459059281405945 1.1038122815437912 5.3551744781885047 56 58 69 1.5401513942236122 31 43 5 550
4225 -0.6575415545621377 2.2829208039004389 4.9179101293665211 39 42 41 1.3175891202045378 7 1431 5 574
4226 2.4686999798323379 -0.73736301724794329 9.2269122202758158 237 245 255 0.29851568759221953 6 606 9 615 5 578
4227 2.7096733916337912 -0.73793829589057747 9.2339084863350802 246 249 255 0.72343850879763905 6 726 5 581 9 799
4229 -7.4556452002511193 -4.0476816907360362 14.723386200117739 138 140 127 1.5967188934242873 3 828 7 778 5 591
4230 -7.4440987846910938 -3.8659112868687462 14.920732419009395 143 141 126 0.45642227235103183 3 832 5 592
4231 -0.00055718519608216719 -0.78948721620763107 9.4559774573301407 80 90 100 0.27313960531790038 6 610 9 788 5 601
4232 -2.5116297538487675 -0.94586732431950604 10.99374767984442 0 0 0 0.28247763380461183 12 646 28 310
4233 -3.3676564383361698 -1.3054547933725484 12.57910650782387 82 70 70 1.1894447462278153 9 432 5 619
4235 0.15182378671751501 -1.0364798633508545 9.9149650026993008 112 116 125 1.0616246617026757 3 648 6 635 9 649 31 742 5 625 12 866
4236 3.1459800031273808 -1.0849650454648834 9.6138034024868979 98 100 112 1.5064558927581342 7 667 9 659 5 626
4237 -0.28135492598544926 -1.1128055595165005 10.237895175213364 107 111 109 0.17181003408332207 9 311 5 627
4239 0.84034604613672148 -1.2306141998026947 10.128818102128355 244 254 255 0.55842740975101846 3 670 9 747 5 642 6 910
4241 -1.8616965760790123 -1.9772911459521436 12.396498975392511 32 39 49 0.47963559714741399 15 898 5 648
4243 -7.4266188819862631 -3.5984857492033582 15.133620840194663 138 141 124 1.115566564048498 3 694 7 982 5 653
4244 0.16262154185121741 -2.8175184293519209 9.6630576010679086 0 0 0 0.36135581684153506 13 523 15 611
4245 0.077225518617420053 -3.022034117534222 9.8270583054440266 0 0 0 0.41879606382934031 13 586 15 550
4246 -5.7184547751259522 -0.45894611616138675 11.189060982975926 71 73 70 0.31761988414349274 3 580 5 681
4247 -2.7279101796352596 -0.9815563911851849 11.847848344256398 80 75 82 1.3319711490534714 6 712 9 452 5 687
4248 0.65446198048087811 -0.22353787347020204 8.6425884052823871 242 249 255 0.48097279055145375 9 876 5 692 6 767
4250 3.3381595267623414 -1.5082971212618477 9.9460491937800679 0 0 0 2.3123981692889588 7 1126 13 345
4251 -1.8482637134613777 0.47448214725722471 6.0752901048630417 81 80 97 0.18354104943816496 15 813 5 702
4252 1.2256757169990209 -0.1962797812867246 6.4432752281640084 246 253 255 0.93094823792326697 6 575 5 704
4253 -0.76255595746350502 -0.0064304146667423633 6.4852865284415531 108 111 119 0.47772783679916853 7 827 5 727
4254 1.2421157156542646 -0.10477614827166452 6.7917994956546401 147 148 154 0.76718322795568239 3 1558 12 617 5 730
4255 -1.5904623758444463 0.40644579256153829 5.6206280333272387 192 190 191 0.0091167421162636174 9 1784 5 751
4257 -1.322476413174015 0.52189245018925001 4.9806260929010042 0 0 0 2.6314156290648478 3 775 6 1256
4258 -0.33131754474119263 0.43149846388504393 5.8522345720446296 100 109 123 1.6263019195609314 10 273 31 722 5 758
4260 -1.6044492654640905 0.80384278677494991 4.9723088562393318 0 0 0 2.1423381258237821 7 763 9 1235
4261 1.1861203198262522 0.65480984022665778 5.1315192895495176 53 56 65 0.21280344399418308 4 1139 5 799
4264 0.57496430418073929 0.78689376440668146 5.3764701695020412 0 0 0 0.23323031669810843 7 1834 31 309
4265 2.5430621289841993 0.72712537538360345 6.829870342666112 42 47 51 1.8664123343683847 12 813 5 810 3 547
4268 -0.072416671580037895 1.5443995237275632 7.2189218715188943 0 0 0 3.4218432932843328 28 506 30 891
4269 -1.9102638189459924 1.4243450039419101 5.1384744819253738 69 73 74 1.0818297722484753 6 538 5 822
4271 -0.41198234799577804 1.4855418438249048 4.9161104540349303 247 248 250 1.9073945270358088 10 325 5 827
4272 -0.35316609871741428 1.4939257052239225 4.6624045903719793 233 232 237 1.3168212916744051 9 967 15 517 5 829
4273 -1.3791249500961149 1.5930334136333721 4.2680720483416223 0 0 0 1.2411473955287193 3 493 15 652
4274 -1.4288003516394094 1.7457316941427821 4.3256453024695185 118 112 107 1.388866253918585 3 560 9 975 5 837
4275 -1.4613960391737721 1.7945573574262408 4.3603543600519412 107 98 91 2.1068836177029175 15 779 5 840
4276 -0.88526209071092443 1.8623097968844118 4.0186191354071408 0 0 0 1.5276383705107568 6 81 7 1423
4277 -0.57958081343446388 2.2494708299758299 4.905359034560747 140 140 135 1.4073998289735066 4 1254 9 1000 5 866
4278 -2.9108088452602709 -3.4428216828612825 10.542558922762373 29 57 111 0.32949370139247769 6 1217 5 868
4279 -2.7997243632760815 -3.4718358109914171 10.645130240483452 31 64 126 0.18295587048622297 6 841 5 870
4280 -0.20361926255519089 -3.1690735708129929 9.8562165852903156 188 214 254 0.55335150496805896 6 839 9 1023 5 871
4281 -0.17529162726902062 -3.072184611515723 9.6405351608768033 42 74 131 1.048634230487506 6 1218 9 1028 5 873
4282 0.32447346287874584 -3.0623400863736561 9.7529395301489252 115 149 201 0.58535613103985262 6 1331 9 1326 5 878
4283 0.18747034182048664 -3.0334946080920093 9.8155851468142963 228 240 255 0.35164184777909829 6 681 5 879
4284 -0.03410845869547359 -2.9649432468329247 10.285619495915622 0 0 0 0.35700219617024109 13 1050 15 535
4285 2.9045683515466929 -1.9856185358322496 11.581454615153113 196 191 179 1.5039539513365032 9 1052 10 176 9 322 5 890
4286 -1.8289999324625306 -1.6203795292544896 12.334834818028172 63 71 78 0.20459048942757255 9 1350 5 895 6 1033
4288 3.2185055083219374 -1.1400538209656446 9.6687753613047835 77 80 89 0.95875383142520476 9 751 5 903 6 1027
4289 2.8458963840942459 -1.045476663887575 9.3396948790003655 71 72 77 1.5733200576260058 6 642 9 759 5 904
4290 0.8117915411016976 -1.0133370114990068 9.7232034643899841 78 87 100 0.42006805875610453 6 919 9 1002 5 905
4293 -2.9370406421936277 -1.0689570296590805 11.244627719598913 145 135 133 0.036798233633725988 9 1407 5 914
4294 2.33042800677149 -0.90944523387741971 9.4691366183085552 76 84 98 2.3581484083245838 2 373 5 917
4295 0.32015348817411854 -0.81699115611124373 9.523757036846499 95 105 117 2.1643483191034529 6 942 31 290 5 921 7 552
4296 -2.6767797531766027 -0.88560787275247221 10.911005566581439 174 172 177 0.46974754561414522 6 640 5 930
4297 2.7796718745540581 -0.7736296308380447 9.281910711833838 53 60 76 0.88367770248827882 9 624 5 937 6 612
4298 2.9352632524295941 -0.74214608975317964 9.1225954224959498 88 101 110 0.21819029654125885 9 789 5 938
4299 -1.5853509846484921 -2.3373721774985614 11.956023986464794 131 122 107 0.97498010318816142 3 394 5 972
4301 -0.13501137870195096 -0.26357381802944185 8.841753417599973 84 93 104 0.75403899246399231 7 858 5 987
4302 -1.5320806402182641 0.12871609530632772 5.9917168888757919 78 86 97 2.3992459497493659 15 1090 5 989
4303 -1.3829275849081493 0.16807867483058944 5.6040829789042057 193 196 204 2.4141905533681154 9 1292 5 990
4304 0.63138646982535995 -0.24432913831166622 8.6999638128125039 79 89 99 0.41275918181022914 9 1147 5 991 6 1594
4308 0.38554574625205656 -1.3416972324973049 11.635547969151713 110 119 134 0.46378719033734017 4 1261 5 1013
4311 0.85982820340576371 -1.1951009919089957 10.020140005275904 91 101 110 0.29156009957401174 9 1354 5 1045 6 1300
4312 -2.650090300635024 -1.1621661447445664 11.821216062117996 64 72 72 0.60853700323972548 6 1078 9 1408 5 1052
4314 0.87345359028904457 -2.0819701405548972 16.479883426212798 105 113 125 0.65814149816714196 6 1437 5 1070
4316 1.6609826981772633 0.0055340859865149585 3.8876817679219831 92 99 111 0.049177393994800041 6 1411 5 1081
4317 -3.1402377845658043 -1.3638838541691047 13.497806446102414 74 73 77 3.1302709080596243 10 254 5 1089
4318 1.9232047598978999 -0.78721111443425451 9.4548293503146326 69 77 90 0.17340458194715999 6 1473 9 1420 5 1101
4319 1.0204716060669876 -0.75109571156363575 9.4663440747837573 98 107 124 0.52871654479593744 31 701 5 1103
4320 2.7838563359676969 -0.75574710008137747 9.1794161510470023 48 53 71 0.59597018975410887 6 1225 9 1703 5 1109
4321 -3.1992000847292328 -0.80562960577248721 10.975619124931921 99 98 104 0.89837973498701296 6 1120 5 1111 30 843
4322 1.4217531808648578 0.47397599322144557 5.3350691951797522 25 40 65 1.3433799078115605 3 1309 5 1144
4323 1.6958902182157467 0.46965230645096995 5.2019945306235327 12 16 27 1.1385294390777534 4 1125 5 1148
