# 3D point list with one line of data per point:
#   POINT3D_ID, X, Y, Z, R, G, B, ERROR, TRACK[] as (IMAGE_ID, POINT2D_IDX)
# Number of points: 388, mean track length: 3.8256345682285109
14253 0.43700695932928513 0.77618891477643248 0.78558605205109455 185 194 203 0.1891236652836005 55 3082 57 829 58 1221 59 1657 63 1295
13532 -0.44809946135598577 4.3505908489132956 1.5263363225953148 179 160 146 1.0017835187329436 53 2083 54 4004 52 1915
15923 -9.0451286532876676 1.8616389951510857 2.1634943673364431 106 98 82 1.9478930920583764 178 715 175 947 176 825
14754 -0.14483198447606227 2.7513799648499626 0.83319589884388123 111 97 71 0.82904092307708832 55 4130 59 4098
13533 0.13504986461467997 1.172724231834297 0.42855016614180591 37 48 57 0.59986327080768276 53 1731 54 4019 52 3801 55 3525
13534 -0.38556018104436274 4.4235168430745651 1.4877554255836314 142 123 107 0.67069993488188118 53 2448 54 4061 52 1930
14197 0.72939031328020398 1.5348698943969394 0.29473237673354169 134 137 130 2.5092353217371941 54 2915 55 2105
13540 0.032047137777725519 0.54913326194323919 1.356141632861986 165 179 187 0.36666421269259225 53 3790 54 4218 52 4032
13541 0.018978718420615607 0.59720687538600148 1.2687778556725902 169 180 188 0.59412882840024317 53 5825 56 4113 54 4238
15223 0.53861335356077789 0.84555862832916662 0.64226376435091803 233 242 249 0.17618555161889113 59 1690 63 2525 65 1887
13542 0.024279811851827569 0.59984851744581447 1.2614854292312578 198 208 217 0.4539577251786287 56 4119 54 4241 52 4072 55 3225
14201 -0.28775697843661419 0.90492649919278201 0.29259046098519337 244 248 255 0.43247547525627661 54 2810 55 3710
13544 0.027441499008979357 0.61077147105809526 1.2861453525096691 142 155 161 1.8913860260861861 53 3829 54 4257 52 2813
14712 0.44177324189492306 0.68854973261994823 0.94796670811674255 237 246 255 0.24506892989737897 58 2748 59 3087 63 3602 65 4148
13547 0.076506522900085569 0.61563626715489783 1.2122036570186498 145 158 166 0.23966022355941866 53 2729 54 4274 52 2337
14205 0.18367326703625667 0.88331950511895529 0.45162489267727862 175 186 192 1.7352776576343676 57 30 63 40 65 39
13548 0.29828793466484244 0.56191198414426324 1.2327697190451845 238 247 253 0.32023793254530153 51 3348 54 4313
14706 0.29899873043896913 0.61647859744774747 1.1244965593651961 172 180 191 0.29583735452300131 58 2614 59 3011 63 3555 62 2715
13549 0.28857174768145999 0.56901522057587006 1.2228242703581349 151 158 168 0.26330389070847499 53 3953 54 4323 52 2341
14145 0.18395234980700115 0.96181774944027476 0.48574882440586598 169 178 186 1.0626867723873314 52 3660 55 4037 57 1488 58 3280 59 4777
13552 0.032275860288586387 0.7301300726506299 1.0090266957206808 182 191 200 0.14647309775082967 54 4405 52 4271
14149 -0.072389720869775367 1.0274024029757174 0.36068071113466404 106 120 131 0.53023208950100575 52 2352 53 1570 55 4072
13556 0.21606042319549804 0.68540564286456507 1.0166411230937955 236 245 253 0.89452410653730352 53 4083 54 4473 52 4280 55 3466
15175 0.48494800308024039 0.81802850452758691 0.70513846348654929 236 240 249 0.84672798468991362 63 1318 65 771 61 471
13558 0.042540551234875303 0.76233052694136005 0.96301280276388346 175 185 194 1.0196129644557272 56 7429 54 4478
14153 0.28143700764236734 0.99634450283440235 0.47471952052527905 188 201 210 1.9349437696984726 52 5370 55 4112 58 4219
13560 0.2079369200282703 0.70450096227482673 0.99543936637611796 229 239 247 1.1592519505697845 53 4124 54 4510 55 5477 57 2862
14664 0.64852897661006337 0.59792714610627595 1.0802625015442664 164 173 182 0.48632293678702992 58 1843 59 2609 63 2223 65 3744 62 901 61 1036 64 1440
13563 1.226079071797707 1.7371032892516571 0.8353922988567154 25 27 26 0.457530743992831 53 6015 54 4531
14157 0.4990509608421741 2.1064989243357162 0.23125409156493751 99 96 81 1.9539209975022998 52 3183 55 4342 58 3857
13564 0.005830485170627989 0.80973522092967731 0.86789898098132667 161 169 180 0.49432616767059145 56 2327 54 4545 52 4377
13566 0.049566621577246173 0.80532091254764859 0.86108152856683207 156 165 174 0.16242756810464706 53 5862 54 4583 52 4386 55 3622 57 3105
13568 0.46297022328716753 0.62652732880164252 1.0554852746310575 240 247 253 0.58792317406276806 53 4259 54 4590 52 4287 55 5467 57 2750 59 2955 65 1956
14000 -0.1225466839629412 0.44054124308132725 1.2884287334202191 89 101 115 0.17152328023328467 52 518 55 655
13569 0.14354926485044839 0.77330146294045388 0.89009307914418478 224 233 240 0.46474705454381288 53 4228 54 4618 52 4378
14004 -0.39219853853523223 2.1922731021961841 0.53094138002713953 124 115 106 0.98001275155587653 52 1684 55 716 57 624 58 334 59 373 63 831
13573 0.046546672606719526 0.8275049499015692 0.80672669181529788 212 221 230 0.89294757162297878 53 4230 54 4650 52 2654
15030 0.32178896549737951 0.5666351126430903 1.2171465596877975 179 187 198 0.72842328861924222 59 2915 63 3419 65 1255 62 954 61 1122 64 1044
13575 0.044194769050584323 0.85519728455643496 0.7682345220254172 157 166 175 0.4755178341357163 51 3407 53 2904 54 4720
14523 0.32017739070306889 1.1710573025384805 0.43367093266779883 100 117 127 1.1880800305121673 57 2324 58 3387 59 4632 63 2725
13576 0.037542678040590895 0.86581104896860028 0.73957355194070229 146 155 164 1.9841090832949579 49 3361 54 4742 52 4532
14008 0.55635223757749963 2.1531072685229593 0.22159292333448752 81 76 57 0.9131162599824445 52 1274 54 2181 55 767 57 348
13577 -0.076422433745969354 0.95321812096955505 0.31377665926834175 160 168 181 1.876181037709818 53 4270 55 1815 55 3970
14012 0.37475451662781112 2.9014583380095331 0.84692724009578857 53 41 17 0.90957134924391947 52 1141 55 828 57 1194 58 175 58 979
13581 0.41337845319991562 0.73220513744727056 0.86798398433299984 0 0 0 0.043065336653388291 51 3527 53 4481
13952 -0.21528019110187246 2.8315538504689801 0.87792674589172559 68 55 38 1.9329901602698754 52 70 55 36 57 38 58 45 59 41
13585 0.60442645555775454 0.69149447871658565 0.91643001364214094 144 152 155 0.16304707687020092 53 4639 54 4957 52 4493
14477 0.436401628802847 2.9164845961651991 0.85107826118629482 103 91 72 1.1119944045509715 55 4722 58 1593 59 4056
13586 0.25242416511123023 0.87086408672453086 0.66552236489350092 243 247 255 0.7629903708357535 53 4615 56 2512 54 5032
13956 -0.2115511878347808 3.1151163159870299 1.0219289668838141 66 54 38 1.7911141386830749 52 99 55 50 57 57 58 61 59 54 63 89 65 656
13589 0.39484921514418397 0.8251352217559158 0.70525637343497838 194 204 213 0.33277360212452761 53 4702 54 5098 55 5511
14982 0.4134527165688322 0.78140925037727216 0.78494867887111475 237 246 254 0.62993906821415546 59 1665 63 2507 65 1890 62 1053 64 662
13591 0.49106999361413561 0.79377984723201434 0.7500406111298219 185 192 202 0.41278287007831849 56 5208 54 5125
14475 -0.50660204527176234 2.1668477319460893 0.52787412741255257 124 117 107 0.98380148308920301 57 591 58 1492 59 2228
13592 0.59597809008324376 0.75060774460613722 0.80774171067092448 141 145 154 0.41683950911954176 56 5284 54 5133 52 5311
13960 -0.59966286012064618 2.7648629225419579 0.86337244035457872 54 51 38 1.3522379464517249 52 121 55 76 57 67 58 65 59 76 63 96
13593 0.6086498956603954 0.74885395765134322 0.80723817414416377 152 159 169 0.30715501225860375 56 5306 54 5149 52 5323
13964 0.29523883760457176 0.56686404685937319 1.2216945106487889 228 237 246 0.68640135477324082 52 171 55 126 57 99 58 80 59 89
13597 0.61757917595829914 0.74905253264369454 0.80692760087772553 153 160 170 0.34856765711834475 56 5332 54 5172 52 3484
13600 0.61181933939822586 0.76978668624581736 0.77497357533116196 232 237 243 1.0866887347408867 53 4877 54 5226 52 3545
16321 -9.7185800345965081 -1.2384014880351266 1.0954630190323968 195 137 89 0.89082993203555538 178 2177 175 2685 176 2899
14934 0.61104352631153047 0.56327869846510725 1.1507617436216178 177 186 195 0.29110471556203077 59 2822 63 2207 65 2963
13607 0.4854844485639902 0.85402507348335033 0.68135201962645409 211 215 224 2.354630100680843 53 4927 56 5413 54 5274
14427 -0.52783489979280851 2.1926143607819126 0.54068705115453508 79 74 69 0.66548979831188937 57 390 58 337 63 486 59 275 65 594
13608 -0.062871948726573521 1.1058599371925513 0.41945406695986176 125 138 146 0.46343178129418994 53 4832 54 5278 52 3749
15307 -0.60644229125661009 3.5897004149542444 3.0168760074080354 102 72 48 0.1530598402790288 63 1898 65 4836
13912 0.44789192868401811 1.5810169121182924 0.067757593207664321 55 60 67 1.4646237273996892 54 5974 52 4724 55 5100
13609 0.57597773870547808 0.81627270942289276 0.69713945137325273 209 213 222 0.35236756143117598 53 6017 54 5286
13610 0.49451244744380612 0.85713126462055966 0.6398149318661086 175 182 188 1.0218425963073028 56 5414 52 3620 54 5292
13611 0.62697850937703214 0.80255515670556121 0.69799202700793528 151 155 164 0.98692171783240845 51 1804 56 5501 54 5309 52 3600
13615 0.50990898014909958 0.88582125941060341 0.56227792460568815 149 161 161 0.79179685370125741 56 5522 54 5391 52 3685 55 4015
13984 0.4745980276077848 2.089699968269584 0.22568322785698058 71 64 45 0.77043633755128105 52 600 55 408 57 297 58 179
13617 0.41747615786993447 0.94478433445412913 0.49788806284961601 148 158 168 1.0489393574921611 53 5026 52 3731
15324 -0.66604152941979244 1.1403956589163384 -0.023943500144074977 116 115 101 1.9928642602121505 63 2980 65 1714
14509 0.46832042249261369 0.62227077481906301 1.0612521111361128 174 183 192 0.49383645320464026 57 2742 58 2603 59 1767 63 2425 65 1241
13618 -0.0062109189121800955 1.1664645454520364 0.42990742350264732 82 99 107 1.1743540611989478 53 3201 56 2691 54 5449 52 1473
16337 -9.7585717503164542 2.8915638075081951 -2.8919823755780096 48 59 77 1.0242184638025387 175 41 176 40 174 38
15014 0.7688900779467821 0.6560865945641472 0.94790488926360661 174 184 193 0.4493358995861792 59 946 63 3280 62 2524 61 2064 64 1300 60 1438
13623 0.62172613492884676 0.79575176917332313 0.71364304335995399 143 150 160 0.81663406562676977 56 5463 54 5517 52 3591
16346 0.039519459421506344 0.84429307880166526 0.18487420876563995 81 81 91 2.6789297080021921 175 31 176 147
14507 0.55296922738663068 0.50510361726068198 1.2651757328051767 164 173 182 0.40558945924669471 57 2608 58 2376 63 2185 59 2793 65 3697
13624 0.037503830751333518 1.1867248661776622 0.42455887961151512 169 182 191 2.1475875327876035 53 4319 52 3795
15323 0.44665010800984123 0.816687377533732 0.71913610490788038 230 239 246 0.43725925958764711 59 3377 65 1377
13992 0.1623836638854263 0.86971540687225279 0.44876107065403859 126 136 148 0.66141186891638815 52 2186 55 504 57 440 58 373 59 620 63 1372 65 1442 62 775
13625 0.13189419711948983 1.1662296513251826 0.44902002104821953 38 53 60 1.2926385774445419 53 3264 56 4836 54 5572
13633 0.2720472289650504 1.1881458740627786 0.393183126460662 195 207 214 1.2529109924168853 51 3133 53 5316 54 5727 52 3889 55 5390 57 1621 182 2795
14589 0.27103081302502369 0.83844532311630549 0.70492842801009326 224 233 242 1.0677776389928892 58 697 59 608 63 587 65 465
13634 0.24593399861169024 1.2154714354300942 0.35205256833521781 112 122 132 1.1735171449017578 56 7212 54 5755
14068 -0.547385828605502 1.9592003991537499 0.79965725836486468 134 140 152 0.64837955374799117 52 3029 55 2084 57 1710
13637 0.28919527624598917 1.2107419283845691 0.36630158153950743 68 72 81 1.4524935058212343 53 3366 54 5783 58 1346
15094 0.095978974106220943 1.1797494289729236 0.40539449979235609 69 79 78 1.0169983372455877 59 4444 63 4542 65 2443
13639 0.24987938754038497 1.3613903338515192 0.38349863058936406 197 200 193 1.0278670706455793 53 5403 54 5855
14587 0.46007183598234946 0.79846830346617159 0.74520206604615624 231 240 249 0.29065456990573513 58 724 59 587 63 741
13640 0.11302706624860949 1.5510655835564884 0.46458701518840317 20 17 11 1.5597267065938105 53 1828 54 5885 52 1627
14072 -0.17763930241758735 2.1139918077078996 0.49013117929296074 205 208 201 0.53407399513930076 52 3089 55 2182
13641 0.62820360260263142 1.416209478229723 0.36486322038981434 153 154 138 1.2603513538886832 53 5475 54 5925 52 4188 55 5189
14076 -0.20591389903748053 2.5284227217702804 0.6942560579570114 126 115 97 0.48335642130207779 52 3126 55 2293
13645 0.084655271626262366 1.2025651561373463 0.37656037995263186 196 204 207 0.8110816114056677 53 3267 56 958 54 6108 55 1933
14016 0.19971319227844589 0.95722613839861515 0.49612018789813211 115 125 134 0.65411837228724001 52 1213 55 985 57 718 59 636 63 1022
13649 -0.18487217959594837 4.3688348564369441 1.4116373499407167 154 134 110 1.3728647585725948 53 706 54 6421 52 1943
14028 0.1174304917064726 0.79079588831357428 0.86535548075223945 178 189 197 0.31490850686668664 52 2127 55 1221 57 609
13661 0.49600413895024792 0.86277989912602049 0.6119839572758089 240 249 253 1.5476500463943175 56 2681 54 6855 52 3636
13664 0.55253626393833921 0.81829772717998883 0.69429469573469405 105 107 113 1.926715337762279 56 5407 54 5262 51 2076
13968 -0.26088549885752332 2.8260525142193273 0.84976474487798859 116 101 77 1.1079286856913093 52 203 55 172 57 140 58 173
13665 -0.059307308555533116 1.1182189392854112 0.47876746092954553 68 80 89 1.0326702813595763 49 2165 54 304 47 201 51 284 53 294
14493 0.17825108582989965 0.68962070806329057 1.0453267099912684 234 244 252 0.28622786599681205 57 2837 58 1987 59 1625 63 2505
13666 0.35256067218703252 0.59398364212888444 1.1607883752599628 187 197 206 0.93225369143233816 50 1490 51 1652 54 2853 56 4391 53 4053 52 3904
13972 -0.38299209537265888 1.3942523101757605 0.43362772256927845 55 48 38 0.92496611632234005 52 310 55 214 57 133 58 111 59 129 63 149 65 223
13669 1.1086132015617864 1.8764627319957328 0.050183827963949157 100 87 68 0.82151718017210196 53 1067 54 376
14998 -0.2892481296908283 0.94461057118984992 0.30989294174988291 76 92 117 1.3888847069434855 59 1394 63 2732
13671 -0.0043141470352874205 0.65569613911292868 1.173356133636831 120 138 152 0.055415276216408044 53 474 54 519
14491 0.46114481531625195 0.63819816114778227 1.0430869726245844 181 190 199 0.69690324428754391 57 2774 58 1916 63 2344 59 3895 65 1116
13672 0.1304406628386571 0.84712344001293671 0.75753253139453181 224 233 242 0.86870366905722518 53 809 54 749 52 1067
13976 -0.18385719416753812 1.4538157954384303 0.44698084892045092 81 75 62 1.4904974702731615 52 365 55 251 57 179 58 191 59 206 63 184 65 205
13674 0.0056149443488056339 0.65949793948488322 1.1846628948769939 198 209 218 2.7207823069824424 53 986 54 864 52 1013
13980 0.90755157681571896 2.2366530224317605 0.19380899192507325 43 54 43 2.5214853881968868 54 1361 55 318
13677 0.93333111243013434 2.2914938412731805 0.21184300745147969 130 134 117 1.6018524401792171 53 1082 54 1129
13679 -0.23394813414209514 4.5435558909936784 1.3536225434022178 160 135 113 0.94778818223897832 53 3778 54 2561
14048 -0.54864077808859713 1.9280107801168842 0.80008640349255111 86 90 101 1.927465866880046 52 4659 55 1747 57 1028
13681 -0.66331024188681365 0.78388447315817256 0.68160581749598992 229 239 251 1.6243560112349966 53 3684 54 2706 52 2782
14573 0.58622042327532997 0.67341220435458882 0.90544161340086771 224 233 242 2.2251202699991999 58 241 59 242 63 333
13682 -0.00022502598679425566 0.81269523418370193 0.86215210787319707 206 221 226 0.19385320800155736 53 2331 54 2910
14052 -0.17780697903532652 1.4046347926145204 0.416607447982968 121 113 98 1.5640834644994646 52 2958 55 1790 58 647 59 705 59 4961 63 926 62 1256
13685 -0.61961519901604645 0.81136439669930871 0.56736183913486626 103 116 142 2.3980846519445951 51 3223 54 4172
15078 0.15586079828757396 0.71677026505287111 0.99521700323090767 237 245 254 0.33783044286183217 59 3293 63 3979 65 2194
13687 0.039705600891137165 0.8064901648201801 0.86026793206725904 145 154 161 0.26703689117658308 53 4177 54 4574 52 4383 55 3619
13688 -0.0033431219271405515 0.84237087534847865 0.80344932459298413 201 215 226 0.46481190527421401 53 2859 54 4629
14056 -0.057288671410516544 1.0199827234399652 0.37809135859149695 0 0 0 1.5889085783635597 53 4546 54 3101
13689 0.084613014788815014 1.2319831999003172 0.35883569868578613 36 43 53 2.0687309523473427 53 1744 54 5640
13693 0.079562986715993628 0.72019553163018302 1.0164188080696985 167 180 188 0.32230174305337833 56 4332 54 6749
13841 -0.068681438830298494 1.0598005302355693 0.40850884171822027 19 29 38 1.9187111879461238 51 3522 54 3149 52 2575
13696 0.18747324301336771 1.1848132317666631 0.40820768979105265 202 212 211 0.69405554003928205 54 30 52 22 55 23 57 28 58 13
13700 0.45240466527860584 0.62595510706020119 1.0679053041664643 233 242 251 1.304731725414604 54 91 52 87 55 86
14871 0.25651101511693508 0.86384934184721318 0.65759333931935904 175 184 193 0.19135292753960575 59 1451 63 1033 65 811
13702 -0.05986312423660279 1.2140046723099489 0.39773961668509311 35 44 53 1.1840595477361162 49 3433 55 77 57 44
13704 0.61750147396074651 1.6067406383829401 0.021800573295203504 149 151 138 1.9247754069799481 54 133 52 122 55 95
14360 0.46772970328106306 0.58284602205158653 1.1412744446657537 152 161 170 0.42364800390284496 55 3345 57 2673 58 2505 59 2639 63 2269 65 2151 62 1790 61 1068 64 1418
13707 0.16357427646378458 1.1975973723335491 0.37793349690476802 181 191 190 1.1464861408647229 54 180 52 152 55 119
13853 0.050459009049608775 1.178783872985627 0.42488981524289449 46 63 70 0.96710902218768435 54 5527 52 2872 55 1902
13708 0.18657174344667873 0.95867889744873958 0.49571836494375549 161 166 170 1.6844445921114186 54 254 52 162 55 158 57 170 58 215 59 456
13711 -0.23077562695499995 3.3674261089417503 1.163149039676781 52 41 25 0.88939813103896148 52 216 55 107 57 147 58 359 63 515
13712 0.19494343632521458 0.67054947354024674 1.0676306775245776 213 217 228 1.0653275336576102 54 242 52 248 55 151
13715 0.32713648958727126 1.1666761106452488 0.43366992766515844 183 196 205 0.16868387884430605 54 268 52 270 55 255
13925 -0.036623649537557069 0.46166822926357215 1.2946491875091106 88 108 121 1.0536402722388665 53 2643 56 4037 52 5352
13716 -0.18471247248895456 1.3981322049639839 0.41956835402599502 70 63 49 1.7643396326503582 52 272 55 166 57 134 58 152 59 184 63 181 65 193 54 830
14951 0.61290336595278516 0.65593005098617407 0.98047628375071672 235 244 253 0.11708903260463943 59 2678 63 2286 65 2136
13718 -0.024738459706398416 1.2019920099316306 0.37817481812939102 28 33 40 0.95532729432101604 54 258 52 306 55 256
13929 -0.065060843738979593 1.0259539048223647 0.37716245106880542 54 61 69 0.95639977163396828 54 1668 56 1775 53 1574 52 3642
13720 0.75043533520250327 2.2185354306791067 0.21205465516776545 133 128 108 1.2100739943940384 54 1043 52 329 55 626
14440 -0.37361956885977365 2.1916683392646257 0.52735839625673642 115 112 105 0.53864636276031541 57 1076 58 596 59 746
13723 0.79988106904085332 1.5967378635846285 0.26714921989466411 201 206 198 1.7791170084521504 54 273 52 357 55 698
13933 0.033538244876500499 0.86934099026912737 0.74851677282022355 198 209 218 1.1826553192949172 49 1138 50 1466 52 4547 53 2919 54 2993
13724 0.52573487297688948 2.1150265136181283 0.22310375478551617 34 30 29 1.0944109881255828 54 605 52 371 55 260
14434 0.4780406920568443 0.56555970801366706 1.1655173735472935 214 224 233 1.0866774916844437 57 525 58 517 59 538 65 444 62 438 64 328
13725 0.51088963814060695 2.009386721285396 0.17988022996820077 127 128 112 0.61494923777314769 54 597 52 406 55 407
13726 0.52564787176683014 1.6031469060578372 0.022176282414388473 210 212 201 1.0844335414688075 54 572 52 418 55 396 57 323
13873 0.17154156995550049 0.96131687862900894 0.48087702195211324 148 155 158 1.3420001922261422 54 5193 52 3650 55 4036 57 1535 58 2171
13728 -0.0060564575175752391 1.1783414298345729 0.41510217540119559 183 198 202 1.5221425527985519 56 1270 52 467 55 375 57 173
14036 0.12180687382704591 4.1115014170830548 1.5089555947221878 100 78 54 0.62135690633649021 52 1248 55 1328
13733 0.7409523028752748 2.127629613871302 0.19522246807133806 119 112 94 0.68908194204293993 54 635 52 585 55 273
14555 0.45081026061790574 1.9023666488219029 0.86412840106710709 42 41 39 1.0561996753999063 58 24 59 35 63 46
13881 -0.062904947326577698 1.1320184104832569 0.4199907586724026 97 110 119 1.1843005731965652 49 2163 53 2552 56 5232 52 3767
13736 0.60692588733953512 2.11030562925936 0.21002396609217491 73 65 43 1.264273194601915 54 3888 52 618 57 638
14386 0.38396502488454765 0.86727582534479042 0.62570475863617281 180 189 198 0.44855981788268451 52 3598 55 3928 57 3361 58 4132
14044 -0.11781452698226468 2.1151024364334234 0.46901437729023865 174 176 162 0.84569551566588175 54 560 55 1667
13741 0.73930280555621508 2.2009991044126886 0.20788398014317935 88 83 63 0.43425570956152049 54 643 52 658 55 805
13825 0.22815954224847465 0.98485957986764561 0.48238825365762839 59 71 83 1.1028075422917358 53 2385 54 2452 52 2347 55 1140 57 714
13744 0.85855396542751927 2.1561279393863364 0.1853565455286558 122 115 97 1.9875437465231611 54 2332 52 683 55 623
13747 0.85816205823734926 2.244430765123957 0.20011756552759699 129 120 103 1.3746036459730426 54 1098 52 706 55 501
13829 0.15998384483993047 0.69137946842646125 1.0499410167318004 232 245 253 0.22031997284067509 54 4440 52 2474 55 3459 57 2839
13748 0.5379818246871233 2.0916719816854341 0.2163478298516906 63 54 39 1.6568841212052174 54 2150 52 733 57 296
14855 0.22324204351201005 0.69283998736824137 1.017310822266247 184 192 203 1.0492300272735628 59 569 63 738 62 483
13750 0.86953012679345787 2.1600676328477424 0.18762442980786759 119 111 90 0.45734231502073558 54 1069 52 737 55 632
13833 0.52965030451225592 0.84428112087594287 0.63105768202243473 239 243 254 0.51034102128903969 54 1716 52 2502 55 3938
13752 0.7319598653236733 1.4913557734410849 0.27948295575557042 225 228 218 0.55926092029178731 54 569 55 1722
14344 0.44282434039738339 0.76645493772433571 0.79813342399563525 245 253 255 0.29681575947011635 55 3074 57 2290 58 2048
13755 0.089913968414365109 0.76015579967315816 0.87729734986063335 205 214 221 1.198145527497972 49 3313 52 787
13837 0.29158414123484927 0.70355062348434594 0.96157731246844258 156 166 175 0.34487042571299076 54 2936 52 2551 55 3529 57 1364
13756 0.40477050431095463 0.79996809990574369 0.74921121750234709 230 240 249 0.50581272586526682 54 769 52 810 55 484
14338 0.46311045072058027 0.70799692655064228 0.91570889965385993 243 252 255 0.34526468551581618 55 3025 57 2240 58 1168
13757 0.45296378200776449 0.78648798780758755 0.76653188329611166 231 235 246 2.0188431952022992 54 494 52 811 55 482
13758 0.40434712555784807 0.81029039692878158 0.73039827489756348 230 239 248 0.52381470595407242 54 772 52 814 55 498
13909 -0.27541950174174967 1.4644090464610438 0.45879198100433188 114 110 99 1.8383165051370558 54 5703 52 4578
13764 0.2486008515476823 0.5086904378413033 1.3292334543704252 92 107 126 0.48564108564984143 54 856 52 1003 55 662
14935 0.59263184904333865 0.565029896969797 1.1523654255002211 185 194 203 0.62526260650593135 59 2830 63 2211 65 2970 61 1866 62 1743 64 1337 60 978 66 1309
13766 0.025627101110427097 0.76502407232261693 0.94798781246592856 203 212 221 0.10687865195301824 54 889 52 1028
15145 -0.67586125832643429 0.94144833330365607 0.47205973632391146 62 76 102 1.1321362309537186 63 961 65 230 61 85
14424 0.18517528380893047 1.1801791917781717 0.41072520089498799 205 216 218 0.5622452253992648 57 339 58 306 59 496 63 525
13771 0.68512143504414025 2.1514944816584292 0.20603917858649165 93 82 63 0.93688473088605495 54 2235 52 1119 55 1531
15138 0.18767454648079601 0.61201883457868878 1.1383867463959192 201 210 217 1.886043151974522 63 131 65 95 62 119
13917 0.55892451427224377 0.73613780002575435 0.85839480014456915 238 242 253 0.28882770729229112 54 5056 52 4876
13772 0.69105116820170076 2.1532118022553344 0.20609290173152986 129 118 100 1.2097137385000776 54 2242 52 1122 55 1528
16163 -8.7913394104975264 1.9406378390520764 -1.6322360877313868 55 65 74 1.6911431025708474 175 54 176 39 174 72
14418 0.21063608921127785 1.6748405966340019 -0.42310584338327178 100 87 70 1.8807073272138364 57 1132 58 262
13773 0.71187961599272109 2.1601338472472378 0.20360850726357757 72 65 46 1.1003387770027875 53 2415 54 1013 52 1132 55 609
13779 0.83142632012628759 2.2090201645145076 0.19698941862635144 100 89 71 1.2833294297817359 54 2345 52 1204 55 827
13989 -0.16419357623616412 2.0640920926676594 0.55524694160145172 198 206 208 0.90713622694404894 52 425 55 469 57 313 58 283 59 289 63 200
13780 0.80080677009173107 2.240772719155514 0.20599331830649131 125 118 100 0.86317191917983083 54 2340 52 1205 55 1422
16180 -9.6626632839697528 2.582057404948864 0.94552005345709833 45 63 94 1.8925471074670648 177 235 175 176 176 84
15015 0.70736832250276815 0.63775166656750115 0.99583455476876959 201 210 217 0.73522656271943632 58 1891 59 2646 63 3292
13782 0.84719066993464953 2.2072314729318685 0.19403118463330588 69 60 43 1.2118878640601378 54 1076 52 1209 55 313
15161 -0.23410200639169484 1.4104199774607924 0.42632715318975972 117 112 100 1.3437280461041337 63 920 65 514 62 1279
14504 0.078258815379042182 1.1710795977642094 0.43328596114001311 190 206 213 0.37790919776358545 57 3544 58 2267 59 1933 63 2794
13787 0.53177659894417773 1.6110754312742261 0.021675671645462958 161 161 150 1.2436886968688299 54 1968 52 1317
15154 -0.62556063981363685 1.5409275654289973 0.5149317490894364 114 110 101 0.61864436366999576 63 885 65 412 62 356
13997 0.50066995735936204 2.013944964464502 0.17953248731133431 100 96 83 0.57590702124310478 54 1048 55 550 57 501
13788 0.77361352128231264 1.5988287345374022 0.28588568624384808 182 188 176 1.2229959467211666 53 3543 54 577 52 1323 55 460
16179 -7.8461150563647077 2.1341827889128182 -0.69413430164037626 32 37 41 2.4520501458905195 177 156 175 165 176 109
14498 0.46521090718205832 0.77450465267032931 0.7846135676942646 170 179 188 0.51447721544912839 57 1539 58 2054 59 1648 63 2477 65 1334 62 1884 61 1972 64 1485
13789 0.67174384893657313 1.6147273593148943 0.31280775086387036 207 208 202 2.1215211333743507 53 5537 54 433 52 1338
13790 0.7242492276836715 1.4217114398937183 0.35905305654201547 98 99 85 0.92779938194985423 53 3455 52 1371 55 677
13937 -0.064458568997435975 1.1456310166059953 0.40166760262051526 61 72 79 1.2279763400737838 48 1975 49 1902 52 2285 53 1404 54 1726 50 519 55 1884 177 1326 178 1509
13792 0.63614746000780564 1.4344760301537214 0.37468727501919613 87 85 72 0.76306632746245562 54 1896 52 1381 55 1038
13797 0.19428540428114527 1.1991709720572068 0.37166708740774657 149 161 162 0.98627228972559244 54 1799 52 1532 55 1094 57 967
13945 0.055736019932580337 0.53841971057455096 1.4247456752369909 186 196 208 2.0857397591575788 54 713 55 2883
13800 0.66886235294503349 1.4263369044145335 0.36395505198918404 164 162 147 0.819864081649475 54 1898 52 1651 55 1040
14456 0.45034221421794229 2.9589536193766421 0.86385698077937312 64 51 32 1.2538046928474815 57 1206 58 992 59 3924
13803 0.42332099388902883 1.5758937930123083 0.058691050986642318 52 57 58 1.3178331401282799 54 5960 55 2818
14450 0.29950910738930853 2.0860911115116267 0.49807774203290611 52 57 60 0.78561720295064597 57 1065 58 901 59 1207 63 1675
13805 -0.23901379359853264 2.732568993612873 0.80913119728654537 117 101 86 2.0891717102364979 54 3727 55 1605 58 974 57 351
13806 -0.31795776516785168 2.9170094357862046 0.91172786587882904 58 38 21 0.83677420722552087 54 3752 52 1747 55 1579
13889 0.33045583854401023 1.1749884791866996 0.42867587104900129 189 203 212 0.71654553700697665 54 6601 52 3893 55 5399
13808 0.6599853273905999 2.0137935987792193 0.16296691389386619 116 114 101 1.2502756256708711 54 6109 52 1791 55 4753
13893 -0.037678389738504799 0.47878757951565198 1.2321439844823354 91 108 124 1.0672650623345779 54 4156 52 3998
13812 0.63275580923862051 2.2447652935953442 0.23172795830272908 145 138 119 1.0112103212517238 53 2410 52 1838 55 2539
14919 0.45088507490040636 0.75091456467062034 0.83534775625388091 178 187 196 0.26210440675111429 59 1627 63 1868 65 1323 62 1014
13814 0.79792681497120721 2.2931888630389579 0.21279772529246846 100 89 69 1.3676374662919004 54 2367 52 1904 55 1391
13897 0.33847710078242088 0.5878117025855043 1.1609582334027975 221 231 240 1.1712373621454537 54 4379 52 4176 55 5454 57 2672 58 2533
13816 0.31035759125002027 0.56837665382558211 1.2135882143205037 227 237 246 0.49130300063080751 54 1482 52 2050 55 1064
13818 0.4737144412429608 0.77028132451714271 0.78647267054167747 237 241 252 0.37726259264962614 54 1660 52 2178 55 2760 57 826
14408 0.31670066996010776 0.47654152680379314 1.3030823993970695 65 83 107 1.6398184563188056 57 35 58 20 59 31 63 35
13819 0.46414453936158129 0.79249641303233764 0.74970023808628716 157 161 172 0.28611496453596086 54 1675 52 2191 55 1200 57 836 58 1241
13901 0.45335124432250223 1.8062120175349192 0.10496697553995352 67 58 52 1.7035145556856124 54 583 52 4276
13820 0.51453046887956766 0.81367321841721285 0.70021419344944957 237 241 252 0.23970067330714875 54 962 52 2224 55 1171
14402 0.035418638272975957 0.80100295382530129 0.95605144747564574 184 194 204 1.027724349648341 52 2115 57 833
13821 0.46781919719114462 0.85910104782744856 0.61808211498603927 240 244 254 1.0926255234645565 53 852 54 3196 52 2236 55 1160
15293 0.55818123660398766 0.77305338358860543 0.7874098320049765 213 217 226 1.369480490285085 59 3229 65 4218 62 2691
13826 0.27560982872692552 0.86616445766212558 0.65467790261439296 236 240 251 0.70337920039705115 54 3105 52 2373 55 3876 57 3337 58 2123 59 1727 63 2624 62 1118
14774 0.45419167201313432 0.61521063012489141 1.083352471282391 115 123 128 0.40746039257294592 58 1882 59 2668 51 1674 56 2381 53 2867 54 2911 52 2476 55 3397 57 2158 63 3408 65 1945 62 1802 61 1921 64 1428
13831 0.28898031315022482 0.66418404141794996 1.0377418496251065 168 180 188 0.2586014700134241 53 4125 52 2484 55 3445 57 2187
15291 -0.11584782904727402 0.45977575178750713 1.2533550055299632 81 96 103 0.47781746997786417 63 3449 65 4168 62 2786
13832 0.26937864055051725 0.91097781062587024 0.34998288142519934 147 152 158 0.70696599511805513 54 5174 52 2499
15245 0.15359992578637424 0.71250955016544149 0.97672723827563279 230 238 249 1.8717909151393632 63 3972 65 2187 62 1993
13842 0.14473344602307464 0.88074539463380952 0.46955119728960809 122 132 141 1.6834229928446365 54 4890 52 2577
14726 0.40536146472179085 0.72867178062794669 0.88345715620541354 204 213 222 0.50264041478584554 58 2858 59 3195 65 4303 61 842 64 1028
13847 -0.061538386197303487 1.1083203104019148 0.42988526933170335 49 55 67 0.55189736028354486 56 5149 52 2832 55 1881 57 3520
13855 0.27526459032307665 1.1858525714002588 0.39805135044912415 85 91 95 0.73814156528411901 53 3321 52 2923 55 1953 57 957
13856 0.27903557832251075 1.199597403709884 0.37793137734488957 199 212 220 0.41412652255729571 54 5760 52 2931 55 5617
15197 0.4445956201198471 0.66799381144649705 0.98946494624435155 235 239 248 0.12524310843385988 63 1206 65 1275 62 966 61 1092
14540 0.60807951490990109 0.49710840694838876 1.2681769397580673 217 230 238 0.50631617856103184 57 2603 58 4064 59 2769
13858 0.48810275276610082 1.5506290006432646 0.43166112499617404 48 46 33 1.8975691242850723 54 1893 52 3053
15553 0.60558877033595615 0.565616265451936 1.152708725756302 205 214 221 0.85372088377966693 62 900 61 1039 64 930
14678 0.62502818011141614 0.67231001484910147 0.94734213281273261 171 180 189 0.25395136954234887 58 2700 59 2699 63 1164 65 1226 62 911
13863 -0.050168873158996728 2.7268692440791411 0.79325442106625188 110 94 78 1.7932958145755094 54 6929 52 3420 55 5547 59 4080
15562 -0.13053111320761149 0.42557982145193712 1.30152924336259 74 85 86 0.52693999361513311 62 1008 61 1199 64 618 60 791
15195 0.31884404221710239 0.57040000601330587 1.2050050878028691 220 232 240 0.47823020723953952 63 2317 65 1258 62 956 61 588 64 663
13864 -0.44408927841709683 0.504273537457676 1.1632008861498315 109 122 139 0.38025449243304293 54 1413 52 3435
14539 -0.2977012635432173 2.8844761319462546 0.88355082131018448 86 74 52 0.74160490144842761 57 1159 58 4047 59 2461
13865 -0.064510080457749822 0.43654460300841968 1.3146781519474615 69 82 99 0.89229513420480711 54 4125 52 3447 55 2861
13866 0.25894093891601583 0.85747905523722079 0.67478495201730015 233 240 250 0.39032001229136543 54 3084 52 3510 55 3834 57 3324 58 3146
15277 0.19395229041629689 0.78087347178975408 0.86543423485519455 187 198 204 0.38536148708262441 59 3404 63 2574 65 3667 62 3030
13874 -0.097100654403309061 1.0371160383654467 0.28543581076587538 121 137 150 0.75718300989004506 54 5025 52 3659
15569 -0.63847754434453863 1.4991399924681499 1.6650180625810871 104 104 106 1.324360657333161 62 686 65 4537 61 1709
14758 0.28424450903776743 1.2065328614363988 0.3575079542789224 61 67 77 0.48851534637964156 55 5360 59 4479
13879 0.28240545464483363 0.99293385794945133 0.49101096977570902 128 139 148 2.1195911248293711 54 5390 52 3737 57 3492
15578 0.55373386236332178 0.50460371850682739 1.268391044487388 166 176 177 0.51028114834688798 62 1733 61 1864 64 937 60 968
15275 -0.078124286307685975 0.93311539722587178 0.30027914190687693 222 232 242 1.5332302842289069 63 4355 65 3396 62 3238
13880 0.43544833386976833 0.96115609696877491 0.48244898280386439 186 198 222 0.74559181860814139 54 5473 56 5584 52 3760 55 4107 57 3474 58 3266 59 3219 63 4225
15357 0.27566354279640448 0.45119634645633261 1.3008677691159656 109 123 136 0.72973898569840689 65 698 62 530
13890 0.10036087326560629 0.89551014250265526 0.4597134475320368 147 159 168 1.3463107189593062 54 4874 52 3928
13891 -0.17825131052525695 1.3800577875867877 0.39357302220305235 57 49 36 0.72043987475301186 54 5655 52 3941
14838 0.10572792956012901 1.1818223809613111 0.40309063691386388 203 215 213 0.78077380322256928 59 504 63 638 65 494
13895 0.092507119241117305 0.60413572966041185 1.2306696613600834 145 154 163 0.091148421267572999 54 4271 52 4090
15355 0.41079479905242877 0.74896959085868731 0.8401594347364949 210 217 225 0.5025536580862151 65 762 62 466 61 604
13896 0.37219991424995497 0.55487840066258154 1.2065033205420861 225 229 240 1.7651300775570642 54 4347 52 4132 55 5451
13920 0.4129098581864476 0.78416119699728659 0.77931282518247225 212 222 231 1.113545602322785 53 5919 56 4999 52 5105 55 3709
15261 0.63108758655419694 0.60331976537950061 1.0753869403618288 231 242 248 0.48056687253938457 63 3281 65 2977 61 2089 64 1329
13922 0.46824538606057509 0.77417367804357939 0.7832196935140866 173 177 188 0.38359543344960406 54 6071 52 5278 55 3708
14742 0.19762759653139844 0.80847787528777515 0.80417071722526501 234 242 254 0.52256522938867711 58 3042 59 3466 63 4128
13927 -0.17448291119212589 2.898761776453509 0.89649487551353824 82 73 58 0.79015423324040635 54 4151 52 5415 55 4371
15259 0.78604714048202984 0.64100604536100092 0.97083508802559915 223 227 236 0.25154038207305701 63 2213 65 2953 62 1721 61 2058
13928 0.14813166403310887 0.88216094741195106 0.68542924491829715 235 239 250 0.30787043476256881 53 4511 52 5432
13930 -0.064508809969301611 1.1183360052408373 0.4131574511301162 100 115 123 1.948032059395113 47 1261 51 1147 56 5183 53 1656 49 3401 50 2629 54 1715 52 3761 56 5168 53 3117 54 3206 182 2610 181 1469
13935 -0.07957321844004886 0.48310752508446064 1.2133249958817875 48 58 66 1.3613482034990938 52 177 51 95 56 127 55 146 57 119
13941 -0.56991692266171212 0.58633443905749838 0.93761667977648988 229 235 247 2.1534552406724679 54 189 52 1514
14822 0.28418947742051454 2.0515957685779962 0.52588583924320398 126 136 136 0.24415256520188136 55 494 63 441
13943 0.074464180810773759 0.75349253802181726 0.94998944466992252 207 215 226 0.19837498680603732 54 2884 52 2540
15339 0.46115183290470541 0.63228722091107237 1.0544750130649474 198 206 217 0.48588268366784748 65 99 62 87 61 53 64 67
13944 -0.0064872716486088673 0.81580335096951773 0.54493639125702897 176 183 199 0.80879190060843276 53 1457 52 2587
13946 0.038103654668398657 0.59158179151271539 1.1970051495325229 178 192 199 2.626358773964673 54 6728 52 4055
13949 -0.0075515658159258899 0.86753246578815935 0.7586327093015468 202 214 226 0.70322559068598145 53 4263 55 3720 54 2970 56 4501
13951 -0.51013485032724948 1.9061957814671415 0.79315233338069357 37 38 42 2.1959480531794084 55 19 57 13 59 21 58 12
14615 -0.31459574829765979 2.9520426349098852 0.92147088995113391 110 96 69 1.6816067954709151 58 1633 59 1088 65 2817
13958 -0.18024871416339541 2.1572627723758968 0.4902270764546181 93 90 82 1.8263121134963087 52 50 55 58 57 41
15128 0.13052888500631998 2.9850910043680283 0.97839279785652034 0 0 0 0.6325511974828919 58 3656 59 2458
13963 0.072124103960881591 1.1809872267706809 0.42736661003280069 65 92 101 1.2254635116169363 52 154 55 121 57 81 58 77
15122 -0.66338669568720043 1.0557971415868275 0.34389571248268852 81 91 101 0.29827766619810026 59 4320 63 5356
13965 0.00018506335173534353 0.43177138155139638 1.3444795818471751 99 114 127 0.62695166585481943 52 237 55 144 54 172
13973 0.3562168081979763 2.9143672730780481 0.84538751126831746 113 101 77 0.98974227628212641 52 579 55 226 57 150 59 134 63 203
14695 0.66332596859161608 0.61129851581234063 1.0532705201838528 177 187 196 0.35310055154806907 58 2546 59 2863 63 2233 65 1188 62 1651 61 541 64 715
13974 -0.23008086719839566 3.4095595219422004 1.1621031289883978 114 98 75 0.67362407028030746 52 218 55 236 57 200 58 361
15208 0.26068828757298329 0.86038774150660546 0.6566855350264279 232 242 249 0.79836732566870661 63 2623 65 1426 62 783
13979 -0.24575512566602598 3.3443639938642189 1.1301430688771423 108 97 74 1.8341637433430367 55 312 57 269 58 251 59 264 63 350
15202 0.22001394831205515 0.68484590632037357 1.0415020136646964 229 237 248 0.26640078884677315 59 844 63 2481 65 1371 62 1074
13981 0.38611868495806173 3.3454081396281778 1.0847296392774688 41 28 13 1.0407005637042837 52 763 55 327 58 252 59 272
13982 -0.097851218108950325 0.41817140280216281 1.3241693800203491 71 86 104 0.45240307873775792 52 519 55 349 57 252
14599 0.16482511082563175 1.182638373128001 0.40135087714043333 96 104 107 0.37138299052519264 58 663 59 812 63 1458
14006 -0.18296355914525531 2.4910836841748232 0.66539785574728727 112 103 87 1.7452886566648769 52 1303 55 731 58 614
15112 0.46865477293755975 0.76742755755299252 0.80085442829190867 154 164 173 0.3673057019323599 59 2442 63 5073 65 1935 62 870 61 1969 64 1482 60 1528
14011 0.38354558920040949 2.8944891164528208 0.84185755951974817 111 96 73 0.77157973089214626 52 5056 55 824 57 1192 58 1591 63 4799
14013 0.38436847878576763 3.3245120954128797 1.0789440698777444 111 95 70 1.4127045430759739 52 1225 55 871 58 1013
14020 0.11195780894631159 1.1786730994290453 0.4236297600071105 196 213 223 0.30889659748947018 52 2310 55 1115 57 942
15396 0.22479254227601245 0.85595802846524505 0.71756023334476216 212 222 232 1.8357737713850248 63 4187 62 1127
14679 0.28404818875424809 0.5998369667154434 1.160770953108365 188 197 207 0.24023324913717364 58 1876 59 2700 63 1863 65 1983
14022 0.018854389382833341 1.1786174743076185 0.42637054388458639 89 107 117 0.20975233731255238 52 2861 55 1126
15192 0.49814135994097397 0.5712509182181652 1.1553347670594938 170 181 187 0.89460202277732837 59 959 65 1209 62 531 64 695 61 1062
14377 0.022900696526368825 2.9276040650327078 0.90996917042123016 95 82 63 0.35996521557130323 52 4945 63 4907
14027 0.46103311851020001 0.80310809024807039 0.73109045143941276 171 175 186 0.50108468106527582 52 2196 55 1193 57 843 58 753 59 1519 63 1314 65 1365 62 1046 61 603
15395 0.26437428826711168 0.85164005722989378 0.68212629268977465 201 214 222 0.4785713027995151 65 2242 62 1113 61 2538
15186 -0.545186597937944 3.0528838194111598 3.2407946990114174 65 53 32 0.57236264711656626 63 786 62 207
14029 0.19429022301706345 0.72469615741104887 1.0004659933248601 235 244 253 1.4707784339779897 52 1030 57 1370 58 1187
14035 -0.10350959928517381 0.46755494425616639 1.2481108005834445 203 216 228 0.30056471500242776 52 2001 55 1311 57 1297
15412 -0.69467959006572688 1.8707995383858824 1.0757881201964996 46 39 36 1.3499664741622746 63 3041 62 1560
14038 -0.67763256865583565 3.6989250734449888 1.3797428992224339 168 155 138 2.3949437077193476 52 390 55 1444
15272 0.20689410308514111 0.87934070403250852 0.7299737335328077 225 238 242 2.3355861740801149 63 4230 62 2070
14393 -0.075282590442552769 1.0366302133855532 0.33174529550497273 17 30 45 1.8363328585271479 55 519 57 3500 52 474
14043 -0.17477678411811862 2.4659121895269456 0.66097307831392471 41 32 18 0.094489185107239942 52 1728 55 1635
15411 -0.67521876877711262 1.8437205090473252 1.0208056000851642 76 76 78 1.0030740188449487 65 1768 62 1554 61 1752
15266 0.20614830037247345 0.7269833565309225 0.96248517201850015 198 207 216 0.54766834966509892 63 3959 65 3040 62 2951 61 2525
14045 -0.38424839369466096 2.207807314793329 0.53420551641957104 120 112 101 1.2885836323270652 52 1690 55 1671 59 2219
14711 0.16310300351437593 0.62610144854991545 1.1669113546471261 178 186 197 0.43516840792526668 58 2654 59 3086 63 3730 65 4690
14054 0.4825556743830865 0.85979988618897218 0.61434200348294754 168 172 183 0.43689770536179728 52 2464 55 1808 57 870
15224 0.4994714052053037 0.85519787120894875 0.62680939846702854 169 173 182 0.40939767089224066 59 3429 63 4003 65 1901
14059 -0.063125732396562426 1.0558665537637415 0.43596877375875231 27 36 47 0.72797730008394546 51 3523 52 3690 55 1870
15218 -0.58341480300814741 1.9287578594860542 0.83637493209866953 26 36 42 1.0932476457410494 63 1714 65 1779 62 3980 61 2682
14061 0.10025726036977893 1.1829577607483162 0.41411285523826619 71 80 83 0.55571876728278957 52 4009 55 1912 57 2334 58 3479
14067 -0.39225970050055048 1.4665132295078904 0.48131747402832636 126 118 105 0.77502796920026873 52 2938 55 1995 58 3700
14663 -0.1087065376566092 0.43550727406225365 1.2955268387460015 175 187 199 0.69915206643155514 58 1079 59 2588 63 2293
14070 0.30080516014126191 1.8465716698407693 0.85358523995477331 20 20 20 1.9987516288371809 52 3059 58 869
15176 0.45529516027333683 0.81935048343402495 0.70926174429284017 234 245 251 0.53128788049262243 63 749 65 779 62 475 64 419
14075 -0.17671607956392965 2.3047077120207669 0.57424234208657576 57 50 34 0.115174564932184 52 1713 55 2223
15170 0.23421680004424139 0.56966731269599669 1.2546712231837915 225 229 238 0.61976510046940947 59 928 65 735 62 566 61 477
14077 0.20975138395192106 1.8777060237904892 -0.22208286811003361 114 101 84 2.4745313679102274 52 4859 55 2337
14078 -0.23440178353134963 2.7199847346596133 0.78435359237210844 76 65 47 2.5241159466520711 55 2345 57 289 59 390 63 857
15037 0.6305432943095437 0.70921631942791952 0.8773198695130654 230 239 248 0.1942054628188119 58 1982 63 3483 65 3952
14082 0.52439096049948108 2.1579233750023157 0.22438629760402873 124 122 104 1.0055421090591359 54 6096 55 2774
14518 0.47604807953385658 0.77882499124991367 0.78052098745674237 238 247 255 0.93110893325501642 57 3649 58 2950 59 3284 65 4351 62 1885 61 1973
14087 0.32846684573951485 0.58576983125483362 1.1744053474295775 180 189 198 0.41321099474867823 52 4170 55 2929 57 2118 58 1701 63 2339 65 2013 62 965 61 1126 64 664
15035 0.45767284404814346 0.6422898862132671 1.0368192586315881 227 236 245 0.65454840071161779 59 4809 63 3473 65 1986 61 1931 64 975
14088 0.36102122322011004 0.59634766138877005 1.1474013117421324 235 245 254 0.20183854146871383 52 2072 55 2942 57 2130
14096 0.15612302855595434 0.77876128305728753 0.87887254767984091 238 245 254 1.508558112892038 52 1039 58 727 59 601
14989 0.19291775727749369 0.80346047484217686 0.81465489423032345 233 241 254 0.55838309250548146 59 1475 63 2596 65 1123 62 1116 61 1492
14098 0.04462553249941436 0.83560201118332622 0.80226483598381726 177 190 199 0.37761859911828738 52 2662 55 3075 57 851
14470 0.36001782529969106 1.3648459034604619 0.37494508291121326 181 183 172 0.55114461262298731 57 1666 58 1383
14103 0.19795111494499157 0.86531113863672005 0.70725418261885054 247 251 255 2.1223196226167924 52 5320 55 3125
14987 0.51084736876199965 0.88693069618739395 0.56137320720052675 161 170 178 0.65676074436921228 59 4108 63 2568 62 2903 61 2009 64 1008
14104 0.36340684076112245 0.85671196273264527 0.64019597307603704 244 248 255 1.8290916112761197 56 2591 55 3137 58 1274
14112 0.31212597335102565 0.57971210304527998 1.192994483973725 239 248 255 0.14924318140252232 52 4155 55 3273 57 2661
14941 0.78647235097410195 0.65646613962151412 0.94354044841093931 232 242 251 0.53315720078458728 59 2901 63 2228 65 3719 62 2518 61 1849 64 2126
14796 0.45111218452078339 0.71390254870288716 0.90250494733313325 203 212 221 0.60959688326870809 59 107 63 132 65 96 62 85 61 54
14114 0.18361141341538573 0.63008328780237222 1.1529909397699747 161 174 182 0.24702921609252831 52 2395 55 3349 57 2164 58 1925
15809 -0.010372996867196034 0.95745995328542111 0.28000928828886362 145 153 178 0.50067287120349202 178 1400 180 297
14422 -0.3820264328294416 2.1934633668348869 0.53031330795082621 80 77 68 1.0905788874161508 57 496 58 274 59 282
14119 0.47019743336979264 0.63030342198560108 1.047200906046091 186 193 201 0.26991274052304193 52 4298 55 3433 57 2760 58 3631
14122 0.46949328019947795 0.63358939642094969 1.0351250248992778 248 255 255 0.68549968969642183 52 4306 55 3443 57 2765 58 2628
14127 0.18994322912388892 1.1627419623114754 0.4422633199640863 121 132 135 1.36898422106513 52 4013 53 1738 55 3532 57 1444 58 2242
15021 0.42157953540445986 0.79809744382762471 0.74763945827047862 235 244 253 0.095959304949926758 59 3346 63 3348 65 2094
14812 0.21085967747611239 0.82040313929461628 0.78174928935958232 170 179 196 0.25754912126608182 59 294 63 308 65 248
14130 0.4330350855324484 0.70169086907709155 0.924208560328864 249 253 255 0.46887882373824152 52 2788 55 3564 57 2872 58 2786 59 3120 63 3651
15825 0.0028899725674885481 1.1773493756488953 0.40934319299803013 149 166 176 1.0427035200912378 182 802 178 2021 177 2396
14135 0.44835533777512609 0.80275649647749181 0.73269403536228084 171 177 187 0.22097707380879769 52 1963 55 3768 57 3264 58 3653
15834 -0.069848841167899453 1.1046772787605339 0.40287126064638068 77 91 104 0.38866699353518069 182 2590 178 2831 177 1886
15019 0.47778134077935541 0.5696495908276149 1.1634419258921982 226 236 246 0.29727275566860983 59 2857 63 3333 65 2114
14136 0.25369786423194202 0.84456010289982597 0.70143241033499382 244 253 255 1.1534789383822566 52 5312 54 4940 55 3791 57 1606
14146 0.089983671732451448 0.98097822176648952 0.40699186665512438 73 86 96 1.2367463895961186 52 3651 58 3324
14582 0.045528046196138143 1.0601036559207868 -0.094321400870776742 226 236 238 2.7838863094661122 57 3557 59 495
15099 -0.62797215395630102 1.9984513752684963 1.1830147612299562 111 113 116 0.24815067777983615 57 328 63 4739
14152 0.43495812378047638 0.96427365680364385 0.48287345089778744 64 76 100 0.68506487715485265 54 5481 55 4110 57 3476 58 3269
14155 0.56389416558215366 1.5774318317280995 0.4863901904964183 140 140 130 1.4477177710367384 52 4700 55 4171
14534 -0.55810880926380346 2.1764745830097318 0.53326158389772171 122 115 105 1.3461244354674113 57 2504 58 3853 59 2243
14167 0.069362405913515474 1.1642701369262958 0.40750848910583687 185 200 207 0.42608295845055483 52 3994 55 4721
14888 0.23640426961184322 0.57275370143756077 1.238854197864387 171 179 190 0.75970408433167369 59 925 63 1199 62 455 65 736 61 476
14171 -0.169631708186433 2.1305295299329945 0.48374178582200877 120 121 111 1.6866674991204349 52 1974 55 4983 58 908 59 2183
14176 0.7010951012679757 1.415015083170599 0.35734335123026928 169 170 156 0.11568073385387803 54 5942 55 5177
15005 -0.55469326931522622 1.9595900303778768 0.83652883163833014 83 85 97 0.28780621289095931 63 3062 61 133
14178 -0.17635181102731623 1.4496382864639685 0.44671974472370796 124 117 101 2.2245843749353891 55 5269 59 4214 62 2344
14181 0.18704975086011807 1.1993423806009389 0.3868581738400626 203 212 211 0.40061444668665636 52 2913 55 5400 57 1629
14182 0.63349914782035344 1.1142619803785887 0.47914622828732828 57 67 78 1.0556326904435045 52 3403 55 5407
